# .PCD v0.7 - Point Cloud Data file format
VERSION 0.7
FIELDS x y z rgb
SIZE 4 4 4 4
TYPE F F F U
COUNT 1 1 1 1
WIDTH 238
HEIGHT 1
VIEWPOINT 0 0 0 1 0 0 0
POINTS 238
DATA ascii
3.9276295 -0.17217082 -0.068622865 4284227639
3.929002 -0.18597431 -0.068657771 4284227639
3.9483001 -0.20070311 -0.069006816 4284227639
3.9535661 -0.21480952 -0.069111533 4284227639
3.8693671 -0.2163312 0.067645527 4284227639
3.9567845 -0.22883967 -0.069181338 4284227639
3.8805656 -0.23054808 0.067854956 4284227639
3.9639878 -0.24244788 -0.069320954 4284227639
3.8877628 -0.24391605 0.067994572 4284227639
3.9871089 -0.25713599 -0.069739819 4284227639
3.8909233 -0.25707069 0.068064384 4284227639
3.8282998 -0.25427541 0.20107476 4284227639
4.0081329 -0.27254426 -0.070123769 4284227639
3.9099507 -0.27203891 0.068413429 4284227639
3.8333662 -0.26805505 0.20138879 4284227639
4.0231142 -0.28767461 -0.07040301 4284227639
3.9309156 -0.28728887 0.068797387 4284227639
3.8363907 -0.2817269 0.20159812 4284227639
4.0180969 -0.30141699 -0.070333198 4284227639
3.9398582 -0.30177221 0.06897191 4284227639
3.8493233 -0.29618931 0.20233083 4284227639
4.0329685 -0.31669328 -0.070612431 4284227639
3.9387808 -0.31552303 0.06897191 4284227639
3.8721559 -0.31154627 0.20358689 4284227639
4.0437965 -0.33175007 -0.070821866 4284227639
3.9575827 -0.33093637 0.069320954 4284227639
3.8869667 -0.32639769 0.20442426 4284227639
4.0585537 -0.34722722 -0.071101107 4284227639
3.9743328 -0.34631121 0.069635101 4284227639
3.8858039 -0.33996376 0.20442426 4284227639
4.0692673 -0.36245653 -0.071310528 4284227639
3.9910235 -0.36180696 0.069949247 4284227639
3.8965278 -0.35461178 0.2050523 4284227639
4.0116363 -0.37779847 0.070333198 4284227639
3.9151502 -0.37009063 0.20609902 4284227639
3.8261993 -0.3623561 0.33624685 4284227639
4.0063124 -0.39141047 0.070263386 4284227639
3.9297361 -0.38531399 0.20693639 4284227639
3.8288772 -0.37609938 0.33659548 4284227639
4.0129509 -0.40549794 0.07040301 4284227639
3.9443333 -0.39995527 0.20777377 4284227639
3.8434663 -0.39040506 0.33798996 4284227639
4.035377 -0.42199904 0.070821866 4284227639
3.9429133 -0.41372111 0.20777377 4284227639
3.8658578 -0.40631804 0.34008169 4284227639
4.0617127 -0.4390915 0.071310528 4284227639
3.95733 -0.42920482 0.20861115 4284227639
3.8723385 -0.42067057 0.34077895 4284227639
4.0681047 -0.45415434 0.071450152 4284227639
3.9716868 -0.44479412 0.20944853 4284227639
3.8748069 -0.4346292 0.34112757 4284227639
4.0784144 -0.46972471 0.071659587 4284227639
3.9859824 -0.46048889 0.21028589 4284227639
3.8930578 -0.45044217 0.34287068 4284227639
4.0926361 -0.48584405 0.07193882 4284227639
4.000217 -0.47628891 0.21112327 4284227639
3.907289 -0.46591598 0.34426519 4284227639
4.1147342 -0.503039 0.072357684 4284227639
4.0064597 -0.49122158 0.21154197 4284227639
3.9254141 -0.48198026 0.3460083 4284227639
4.1248569 -0.51889658 0.072567105 4284227639
4.0205727 -0.50720358 0.21237932 4284227639
3.9434748 -0.49817663 0.34775141 4284227639
4.1468186 -0.53636992 0.072985962 4284227639
4.0346231 -0.52329004 0.21321672 4284227639
3.9417117 -0.51193887 0.34775141 4284227639
4.1568151 -0.55242246 0.07319539 4284227639
4.056529 -0.54053593 0.21447276 4284227639
3.9517498 -0.52727604 0.34879729 4284227639
3.8564227 -0.51592678 0.47772786 4284227639
4.1627865 -0.56801045 0.073335014 4284227639
4.0744057 -0.55739963 0.21551949 4284227639
3.9656768 -0.54323012 0.35019177 4284227639
3.8604984 -0.53019542 0.47845906 4284227639
4.1766219 -0.58475602 0.073614255 4284227639
4.0724349 -0.57161856 0.21551949 4284227639
3.9933515 -0.56122899 0.35280645 4284227639
3.8704181 -0.54532951 0.47992152 4284227639
4.1983075 -0.6027416 0.074033104 4284227639
4.0723925 -0.58611512 0.21562417 4284227639
4.0051723 -0.57715416 0.35402662 4284227639
3.8920672 -0.56224233 0.48284638 4284227639
4.1882648 -0.61622846 0.073893487 4284227639
4.0940318 -0.60382384 0.21688022 4284227639
4.0011625 -0.59084022 0.35385233 4284227639
3.9038267 -0.57785946 0.48455253 4284227639
3.9057114 -0.59207797 0.48504004 4284227639
4.168292 -0.62816256 0.073579341 4292228003
4.0918994 -0.61811107 0.21688022 4292228003
3.9813457 -0.60212189 0.35228351 4292228003
4.1443343 -0.639355 0.07319539 4292228003
4.0680051 -0.62903345 0.21572883 4292228003
3.9733129 -0.61510134 0.35176057 4292228003
3.8781197 -0.60175091 0.48187143 4292228003
4.1262751 -0.65132332 0.07291615 4292228003
4.0342207 -0.63823605 0.21405408 4292228003
3.961302 -0.62740868 0.350889 4292228003
4.1160798 -0.66444796 0.072776534 4292228003
4.0161953 -0.64976245 0.21321672 4292228003
3.93942 -0.6380468 0.34914589 4292228003
3.8424733 -0.62372142 0.47797161 4292228003
4.0940056 -0.67555606 0.072427489 4292228003
3.9941976 -0.66051894 0.21216999 4292228003
3.9096501 -0.64723837 0.34670553 4292228003
4.0640163 -0.68518835 0.07193882 4292228003
3.980052 -0.67246091 0.21154197 4292228003
3.8995092 -0.65955251 0.3460083 4292228003
4.041893 -0.69597685 0.071589775 4292228003
3.9658709 -0.68431205 0.21091393 4292228003
3.8893294 -0.67180389 0.34531105 4292228003
4.0315609 -0.70869648 0.071450152 4292228003
3.9339535 -0.69295412 0.20934384 4292228003
3.871264 -0.68260831 0.34391654 4292228003
4.0133162 -0.71994036 0.071170911 4292228003
3.9197161 -0.70456195 0.20871581 4292228003
3.8531706 -0.69329476 0.34252208 4292228003
3.9950428 -0.73106545 0.070891678 4292228003
3.8975878 -0.71463799 0.20766909 4292228003
3.8311303 -0.70314395 0.34077895 4292228003
3.9611428 -0.73844582 0.070333198 4292228003
3.8951967 -0.72755897 0.20766909 4292228003
3.8052762 -0.71145064 0.33868721 4292228003
3.9369314 -0.74816167 0.069949247 4292228003
3.873013 -0.73741567 0.20662238 4292228003
3.7871122 -0.72174531 0.3372927 4292228003
3.9303691 -0.76113915 0.069879435 4292228003
3.8351228 -0.74408317 0.20473827 4292228003
3.7806582 -0.73420072 0.3369441 4292228003
3.9936626 -0.78135413 -0.071031295 4292228003
3.9119935 -0.77175778 0.069600195 4292228003
3.8207459 -0.75514215 0.20411025 4292228003
3.7624362 -0.74429995 0.33554959 4292228003
3.9732606 -0.79177248 -0.070717148 4292228003
3.8975122 -0.78304505 0.069390766 4292228003
3.8102548 -0.76689816 0.20369156 4292228003
3.7402837 -0.75349408 0.33380648 4292228003
3.960674 -0.80364877 -0.070542626 4292228003
3.8673275 -0.791035 0.068902098 4292228003
3.795815 -0.77778816 0.20306353 4292228003
3.9500115 -0.81585139 -0.07040301 4292228003
3.8488808 -0.80126917 0.068622865 4292228003
3.7872112 -0.78981 0.20274951 4292228003
3.923656 -0.82469851 -0.069984153 4292228003
3.8343227 -0.81221306 0.068413429 4292228003
3.7590325 -0.79763573 0.20138879 4292228003
3.9090204 -0.83588076 -0.069774717 4292228003
3.8236449 -0.82390755 0.068273813 4292228003
3.7386544 -0.80695975 0.20044672 4292228003
3.8826308 -0.84442103 -0.069355868 4292228003
3.8051188 -0.83382511 0.067994572 4292228003
3.7241099 -0.81743604 0.1998187 4292228003
3.8640392 -0.85451448 -0.069076627 4292228003
3.7865703 -0.84362358 0.067715339 4292228003
3.7173352 -0.82956052 0.19960935 4292228003
3.853229 -0.86624295 -0.068937011 4292228003
3.7640994 -0.85241932 0.067366287 4292228003
3.8423839 -0.8779062 -0.068797387 4292228003
3.7494087 -0.86286253 0.067156859 4292228003
3.8198171 -0.88679117 -0.068448335 4292228003
3.7463737 -0.87594509 0.067156859 4292228003
3.7972355 -0.89552927 -0.06809929 4292228003
3.7316198 -0.88624465 0.06694743 4292228003
3.77075 -0.90318906 -0.067680433 4292228003
3.7675743 -0.91634601 -0.067680433 4292228003
3.8380351 -0.28656241 -0.20170279 4293698339
3.8299694 -0.31286198 -0.20138879 4293698339
3.8248737 -0.32589 -0.20117943 4293698339
3.8197341 -0.33888635 -0.20097008 4293698339
3.8205166 -0.35240105 -0.20107476 4293698339
4.036119 -0.37370893 -0.070752062 4293698339
3.8272159 -0.36649653 -0.20149344 4293698339
4.0427518 -0.38856059 -0.070891678 4293698339
3.8318756 -0.38044581 -0.20180747 4293698339
4.0453501 -0.40306655 -0.070961483 4293698339
3.8067513 -0.39070365 -0.20055141 4293698339
4.0360346 -0.41565979 -0.070821866 4293698339
3.8152947 -0.4050436 -0.20107476 4293698339
4.0385365 -0.43016928 -0.070891678 4293698339
3.8118722 -0.41814119 -0.20097008 4293698339
4.025084 -0.44295132 -0.07068225 4293698339
3.820312 -0.43256813 -0.20149344 4293698339
4.0195394 -0.45654738 -0.070612431 4293698339
3.8148115 -0.44543755 -0.20128411 4293698339
4.0258656 -0.47150588 -0.070752062 4293698339
3.7993526 -0.45708114 -0.20055141 4293698339
4.0241952 -0.48555589 -0.070752062 4293698339
3.8036804 -0.471077 -0.20086543 4293698339
4.0224757 -0.49960002 -0.070752062 4293698339
3.8059754 -0.48485628 -0.20107476 4293698339
4.012773 -0.51262438 -0.070612431 4293698339
3.8062398 -0.49839792 -0.20117943 4293698339
4.0069938 -0.52610791 -0.070542626 4293698339
3.8064563 -0.51194739 -0.20128411 4293698339
4.0170236 -0.54169506 -0.070752062 4293698339
3.7927752 -0.52359247 -0.20065607 4293698339
4.011147 -0.55516553 -0.07068225 4293698339
3.7988346 -0.53794873 -0.20107476 4293698339
4.013144 -0.56972587 -0.070752062 4293698339
3.7929809 -0.550632 -0.20086543 4293698339
4.0111308 -0.58373082 -0.070752062 4293698339
3.8009133 -0.56533778 -0.20138879 4293698339
4.009069 -0.59772867 -0.070752062 4293698339
3.8028657 -0.57920349 -0.20159812 4293698339
4.006958 -0.61171931 -0.070752062 4293698339
3.7870066 -0.590321 -0.20086543 4293698339
4.0127015 -0.62693727 -0.070891678 4293698339
3.7888675 -0.60416555 -0.20107476 4293698339
4.0183868 -0.64220268 -0.071031295 4293698339
3.7867355 -0.61738747 -0.20107476 4293698339
4.0003324 -0.65364575 -0.070752062 4293698339
3.7924378 -0.63191497 -0.20149344 4293698339
4.0019712 -0.66826427 -0.070821866 4293698339
3.8000536 -0.64682496 -0.20201682 4293698339
4.0114412 -0.68424708 -0.071031295 4293698339
3.7879338 -0.65837556 -0.20149344 4293698339
4.012969 -0.69893181 -0.071101107 4293698339
3.7875793 -0.67194283 -0.20159812 4293698339
4.0105047 -0.71293545 -0.071101107 4293698339
3.795037 -0.68693858 -0.20212148 4293698339
4.0079918 -0.72693038 -0.071101107 4293698339
3.7827959 -0.69836855 -0.20159812 4293698339
4.0014968 -0.7401889 -0.071031295 4293698339
3.7961621 -0.71386176 -0.20243551 4293698339
3.9990203 -0.75345433 -0.071031295 4293698339
3.7877624 -0.72598058 -0.20212148 4293698339
4.0002937 -0.7681632 -0.071101107 4293698339
3.7675629 -0.7357527 -0.20117943 4293698339
3.7982728 -0.75552344 -0.20295887 4293698339
3.7936549 -0.76838082 -0.20285419 4293698339
3.7909496 -0.78161842 -0.20285419 4293698339
3.7842889 -0.79402626 -0.20264484 4293698339
3.7814941 -0.80723113 -0.20264484 4293698339
3.7825568 -0.82127357 -0.20285419 4293698339
3.791369 -0.83705568 -0.20348223 4293698339
3.7923214 -0.85115969 -0.20369156 4293698339
3.7873797 -0.86394793 -0.20358689 4293698339
3.7746127 -0.87490821 -0.20306353 4293698339
3.7832003 -0.89082545 -0.20369156 4293698339
