# .PCD v0.7 - Point Cloud Data file format
VERSION 0.7
FIELDS x y z intensity
SIZE 4 4 4 4
TYPE F F F F
COUNT 1 1 1 1
WIDTH 127
HEIGHT 1
VIEWPOINT 0 0 0 1 0 0 0
POINTS 127
DATA ascii
4.194221 -0.61139792 0.070166074 100
4.1895127 -0.61099422 0.077253804 100
4.184804 -0.61059052 0.084341541 100
4.1800952 -0.61018682 0.091429271 100
4.1753869 -0.60978311 0.098517001 100
4.1706781 -0.60937947 0.10560474 100
4.1659694 -0.60897577 0.11269247 100
4.1612606 -0.60857207 0.1197802 100
4.1565523 -0.60816836 0.12686794 100
4.1518435 -0.60776472 0.13395566 100
4.1471348 -0.60736102 0.14104339 100
4.1424265 -0.60695732 0.14813112 100
4.1377177 -0.60655361 0.15521885 100
4.133009 -0.60614991 0.16230659 100
4.1283002 -0.60574627 0.16939433 100
4.1235919 -0.60534257 0.17648207 100
4.1188831 -0.60493886 0.1835698 100
4.1141744 -0.60453516 0.19065753 100
4.1094661 -0.60413152 0.19774526 100
4.1047573 -0.60372782 0.204833 100
4.1000485 -0.60332412 0.21192074 100
4.0953398 -0.60292041 0.21900848 100
4.0906315 -0.60251677 0.22609621 100
4.0859227 -0.60211307 0.23318395 100
4.081214 -0.60170937 0.24027169 100
4.0765057 -0.60130566 0.24735942 100
4.0717969 -0.60090196 0.25444713 100
4.0670881 -0.60049832 0.26153487 100
4.0623798 -0.60009462 0.26862261 100
4.0576711 -0.59969091 0.27571031 100
4.0529623 -0.59928721 0.28279805 100
4.0482535 -0.59888357 0.28988579 100
4.0435452 -0.59847987 0.2969735 100
4.0388365 -0.59807616 0.30406123 100
4.0341277 -0.59767246 0.31114894 100
4.0294194 -0.59726882 0.31823668 100
4.0247107 -0.59686512 0.32532442 100
4.0200019 -0.59646142 0.33241212 100
4.0152936 -0.59605771 0.33949986 100
4.0105848 -0.59565401 0.34658757 100
4.0058761 -0.59525037 0.35367531 100
4.0011673 -0.59484667 0.36076304 100
3.996459 -0.59444296 0.36785075 100
3.9917502 -0.59403926 0.37493849 100
3.9870417 -0.59363562 0.3820262 100
3.9823329 -0.59323192 0.38911393 100
3.9776244 -0.59282821 0.39620167 100
3.9729159 -0.59242451 0.40328938 100
3.9682071 -0.59202087 0.41037712 100
3.9634986 -0.59161717 0.41746482 100
3.9587898 -0.59121346 0.42455256 100
3.9540813 -0.59080976 0.4316403 100
3.9493728 -0.59040612 0.438728 100
3.944664 -0.59000242 0.44581574 100
3.9399555 -0.58959872 0.45290345 100
4.2058215 -0.60888803 0.048007943 100
4.2018294 -0.60195017 0.04517876 100
4.1978369 -0.59501225 0.042349577 100
4.1938448 -0.58807439 0.03952039 100
4.1898527 -0.58113647 0.036691207 100
4.1858606 -0.5741986 0.033862025 100
4.1818681 -0.56726068 0.03103284 100
4.177876 -0.56032282 0.028203657 100
4.1738839 -0.5533849 0.025374474 100
4.1698918 -0.54644704 0.022545289 100
4.1658993 -0.53950912 0.019716106 100
4.1619072 -0.53257126 0.016886923 100
4.1579151 -0.52563339 0.014057741 100
4.153923 -0.51869547 0.011228555 100
4.149931 -0.51175755 0.0083993692 100
4.1459384 -0.50481969 0.005570184 100
4.1419463 -0.4978818 0.0027409988 100
4.1379542 -0.49094388 -8.8186651e-05 100
4.1339622 -0.48400599 -0.0029173719 100
4.1299696 -0.4770681 -0.0057465574 100
4.1259775 -0.47013021 -0.0085757431 100
4.1219854 -0.46319231 -0.011404928 100
4.1179934 -0.45625442 -0.014234114 100
4.1140008 -0.44931653 -0.017063299 100
4.1100087 -0.44237864 -0.019892484 100
4.1060166 -0.43544072 -0.022721669 100
4.1020246 -0.42850286 -0.025550852 100
4.0980325 -0.42156497 -0.028380033 100
4.0940399 -0.41462708 -0.031209214 100
4.0900478 -0.40768918 -0.034038395 100
4.0860558 -0.40075132 -0.036867574 100
4.0820637 -0.39381343 -0.039696757 100
4.0780711 -0.38687554 -0.042525936 100
4.074079 -0.37993765 -0.045355119 100
4.070087 -0.37299976 -0.048184298 100
4.0660949 -0.3660619 -0.051013481 100
4.0621028 -0.359124 -0.053842664 100
4.0581102 -0.35218611 -0.056671843 100
4.0541182 -0.34524822 -0.059501026 100
4.0501261 -0.33831036 -0.062330205 100
4.046134 -0.33137247 -0.065159388 100
4.0421414 -0.32443458 -0.067988567 100
4.0381494 -0.31749669 -0.070817746 100
4.0341573 -0.31055883 -0.073646933 100
4.0301652 -0.30362093 -0.076476112 100
4.0261726 -0.29668304 -0.079305291 100
4.0221806 -0.28974515 -0.08213447 100
4.0181885 -0.28280726 -0.084963657 100
4.0141964 -0.2758694 -0.087792836 100
4.0102043 -0.26893151 -0.090622015 100
4.0062118 -0.26199362 -0.093451194 100
4.0022197 -0.25505573 -0.096280381 100
3.9982276 -0.24811785 -0.09910956 100
3.921881 -0.84413904 -0.11313886 100
3.9289901 -0.83838415 -0.10909665 100
3.9360995 -0.83262926 -0.10505443 100
3.9432087 -0.82687438 -0.10101222 100
3.9503181 -0.82111943 -0.096969999 100
3.9574273 -0.81536454 -0.092927776 100
3.9645367 -0.80960965 -0.088885561 100
3.9716458 -0.80385476 -0.084843345 100
3.978755 -0.79809988 -0.080801129 100
3.9858644 -0.79234499 -0.076758914 100
3.9929736 -0.78659004 -0.072716698 100
4.000083 -0.78083515 -0.068674482 100
4.0071921 -0.77508026 -0.064632267 100
4.0143013 -0.76932538 -0.060590051 100
4.0214105 -0.76357049 -0.056547832 100
4.0285201 -0.75781554 -0.052505612 100
4.0356293 -0.75206065 -0.048463393 100
4.0427384 -0.74630576 -0.044421174 100
4.0498476 -0.74055088 -0.040378958 100
