# .PCD v0.7 - Point Cloud Data file format
VERSION 0.7
FIELDS x y z intensity
SIZE 4 4 4 4
TYPE F F F F
COUNT 1 1 1 1
WIDTH 63
HEIGHT 1
VIEWPOINT 0 0 0 1 0 0 0
POINTS 63
DATA ascii
4.1824865 -0.61028177 0.094159864 100
4.177763 -0.60988748 0.10114177 100
4.1730394 -0.6094932 0.10812368 100
4.1683159 -0.60909885 0.1151056 100
4.1635923 -0.60870457 0.12208751 100
4.1588688 -0.60831022 0.12906942 100
4.1541452 -0.60791594 0.13605133 100
4.1494217 -0.60752165 0.14303324 100
4.1446981 -0.60712731 0.15001515 100
4.1399746 -0.60673302 0.15699705 100
4.135251 -0.60633874 0.16397896 100
4.1305275 -0.6059444 0.17096087 100
4.1258039 -0.60555011 0.17794278 100
4.1210804 -0.60515583 0.18492471 100
4.1163568 -0.60476148 0.19190662 100
4.1116333 -0.6043672 0.19888853 100
4.1069098 -0.60397285 0.20587045 100
4.1021862 -0.60357857 0.21285236 100
4.0974627 -0.60318428 0.21983427 100
4.0927391 -0.60278994 0.22681619 100
4.0880156 -0.60239565 0.2337981 100
4.083292 -0.60200137 0.24078001 100
4.0785685 -0.60160702 0.24776193 100
4.0738449 -0.60121274 0.25474384 100
4.0691214 -0.60081846 0.26172575 100
4.0643978 -0.60042411 0.26870766 100
4.0596743 -0.60002983 0.27568957 100
4.0549507 -0.59963548 0.28267148 100
4.0502272 -0.5992412 0.28965339 100
4.0455036 -0.59884691 0.2966353 100
4.0407801 -0.59845257 0.30361718 100
4.0360565 -0.59805828 0.31059909 100
4.031333 -0.597664 0.317581 100
4.0266094 -0.59726965 0.32456291 100
4.0218859 -0.59687537 0.33154482 100
4.0171623 -0.59648108 0.33852673 100
4.0124388 -0.59608674 0.34550861 100
4.0077152 -0.59569246 0.35249051 100
4.0029917 -0.59529811 0.35947242 100
3.9982684 -0.59490383 0.36645433 100
3.9935448 -0.59450954 0.37343624 100
3.9888213 -0.5941152 0.38041815 100
3.9840977 -0.59372091 0.38740003 100
3.9793742 -0.59332663 0.39438194 100
3.9746506 -0.59293228 0.40136385 100
3.9699271 -0.592538 0.40834576 100
3.9652035 -0.59214371 0.41532767 100
3.96048 -0.59174937 0.42230955 100
3.9557564 -0.59135509 0.42929146 100
3.9510329 -0.59096074 0.43627337 100
3.9463093 -0.59056646 0.44325528 100
3.9415858 -0.59017217 0.45023718 100
4.0594969 -0.35249251 -0.053567424 100
4.0546908 -0.34433594 -0.056787778 100
4.0498843 -0.33617938 -0.060008131 100
4.0450783 -0.32802284 -0.063228488 100
4.0402718 -0.31986627 -0.066448838 100
4.0354657 -0.3117097 -0.069669195 100
4.0306597 -0.30355313 -0.072889544 100
4.0258532 -0.29539657 -0.076109901 100
4.0210471 -0.28724003 -0.079330251 100
4.0162411 -0.27908346 -0.082550608 100
4.0114346 -0.27092689 -0.085770957 100
