# .PCD v0.7 - Point Cloud Data file format
VERSION 0.7
FIELDS x y z rgb
SIZE 4 4 4 4
TYPE F F F U
COUNT 1 1 1 1
WIDTH 240
HEIGHT 1
VIEWPOINT 0 0 0 1 0 0 0
POINTS 240
DATA ascii
3.9931924 -0.7733053 -0.070996389 4280891687
3.9865448 -0.78646529 -0.070926577 4280891687
3.9622095 -0.79604334 -0.070542626 4280891687
3.9456933 -0.80706418 -0.070298299 4280891687
3.9350204 -0.81920195 -0.070158668 4280891687
3.9164867 -0.82961762 -0.069879435 4280891687
3.9018381 -0.84075636 -0.069670007 4280891687
3.8715327 -0.8483786 -0.069181338 4280891687
3.8529329 -0.85840875 -0.068902098 4280891687
3.8382111 -0.86920273 -0.068692669 4280891687
3.827359 -0.88080144 -0.068553053 4280891687
3.8164721 -0.89233488 -0.068413429 4280891687
3.7899868 -0.90010661 -0.067994572 4280891687
3.7675409 -0.90798455 -0.067645527 4280891687
3.7526944 -0.91827846 -0.067436099 4280891687
4.1857009 -0.59198725 0.073788777 4280891687
4.191525 -0.60774219 0.073928393 4280891687
4.1874003 -0.62207586 0.073893487 4280891687
4.157526 -0.6324783 0.073404826 4280891687
4.1355338 -0.64391035 0.073055774 4280891687
4.1212978 -0.65717423 0.072846346 4280891687
4.103189 -0.66898191 0.072567105 4280891687
4.0929394 -0.68198603 0.072427489 4280891687
4.0491357 -0.68922234 0.071694486 4280891687
4.0309434 -0.70061272 0.071415246 4280891687
4.0205979 -0.71328193 0.071275629 4280891687
4.0062771 -0.72517508 0.071066193 4280891687
3.984185 -0.73482931 0.070717148 4280891687
3.9540823 -0.74355841 0.070228487 4280891687
3.9318233 -0.75359195 0.069879435 4280891687
3.9213183 -0.76577902 0.069739819 4280891687
3.9029312 -0.77634132 0.069460578 4280891687
3.8845181 -0.78678465 0.069181338 4280891687
3.8621633 -0.79630125 0.068832293 4280891687
3.8397894 -0.80567145 0.068483248 4280891687
3.8252196 -0.81656516 0.068273813 4280891687
3.8145294 -0.82821548 0.068134196 4280891687
3.8077099 -0.84066337 0.068064384 4280891687
3.7735336 -0.8469429 0.067505911 4280891687
3.7608063 -0.85788625 0.067331389 4280891687
3.7461002 -0.86829942 0.067121953 4280891687
3.7313678 -0.87862051 0.066912524 4280891687
4.0913348 -0.59467351 0.21667089 4280891687
4.0892339 -0.60895139 0.21667089 4280891687
4.0772109 -0.62171626 0.21614751 4280891687
4.0592294 -0.63348091 0.21531016 4280891687
4.0292683 -0.64394176 0.21384473 4280891687
3.9994006 -0.65349352 0.21237932 4280891687
3.985275 -0.66547626 0.2117513 4280891687
3.9750526 -0.67804015 0.2113326 4280891687
3.960856 -0.6898554 0.21070457 4280891687
3.9210618 -0.69703543 0.20871581 4280891687
3.9030063 -0.70718557 0.20787844 4280891687
3.8887303 -0.71862763 0.20725042 4280891687
3.8783472 -0.73071831 0.20683172 4280891687
3.8561585 -0.74048537 0.20578501 4280891687
3.8339493 -0.75010645 0.20473827 4280891687
3.8156376 -0.76036215 0.2039009 4280891687
3.805131 -0.77208793 0.20348223 4280891687
3.7926326 -0.7833457 0.20295887 4280891687
3.7820568 -0.79493636 0.20254017 4280891687
3.7519157 -0.80228645 0.20107476 4280891687
3.733479 -0.81198251 0.20023739 4280891687
3.7228212 -0.82328475 0.1998187 4280891687
3.725771 -0.83758909 0.20013271 4280891687
4.0043006 -0.56918335 0.35385233 4280891687
4.0063338 -0.58303273 0.35420093 4280891687
3.9944215 -0.59554487 0.35332939 4280891687
3.9745922 -0.6067782 0.35176057 4280891687
3.9585624 -0.61918646 0.3505404 4280891687
3.9524419 -0.63237113 0.35019177 4280891687
3.9344807 -0.64359087 0.34879729 4280891687
3.9086287 -0.65337884 0.34670553 4280891687
3.8866844 -0.66366494 0.34496242 4280891687
3.8804185 -0.67654359 0.34461379 4280891687
3.8662641 -0.68799037 0.34356794 4280891687
3.8442354 -0.69792295 0.34182483 4280891687
3.8143485 -0.70625913 0.33938447 4280891687
3.7963223 -0.71595013 0.33798996 4280891687
3.7820609 -0.72694105 0.3369441 4280891687
3.7716792 -0.73860693 0.33624685 4280891687
3.7612624 -0.75020903 0.33554959 4280891687
3.9167595 -0.58536357 0.48625872 4280891687
3.9009562 -0.59693015 0.48455253 4280891687
3.8733535 -0.60655093 0.48138395 4280891687
3.8436635 -0.6163432 0.47797161 4280891687
3.829735 -0.62782949 0.47650915 4280891687
3.865432 -0.26758566 -0.20306353 4281754385
3.8425624 -0.27948317 -0.20191215 4281754385
3.8495293 -0.29350188 -0.20233083 4281754385
3.8425086 -0.3064611 -0.20201682 4281754385
3.8334539 -0.31920916 -0.20159812 4281754385
3.8203197 -0.33221912 -0.20097008 4281754385
3.8171477 -0.34537256 -0.20086543 4281754385
3.8239353 -0.35877499 -0.20128411 4281754385
3.8226597 -0.37212086 -0.20128411 4281754385
3.8154433 -0.38419491 -0.20097008 4281754385
3.8120923 -0.39730394 -0.20086543 4281754385
3.8046534 -0.41063035 -0.20055141 4281754385
3.8131216 -0.42501476 -0.20107476 4281754385
3.8135223 -0.43921617 -0.20117943 4281754385
3.8219616 -0.45303535 -0.20170279 4281754385
3.8025951 -0.46353191 -0.20076075 4281754385
3.8009541 -0.47680262 -0.20076075 4281754385
3.8052092 -0.49083406 -0.20107476 4281754385
3.817332 -0.50595063 -0.20180747 4281754385
3.8056476 -0.51792586 -0.20128411 4281754385
3.7998605 -0.53065443 -0.20107476 4281754385
3.7980797 -0.54325229 -0.20107476 4281754385
3.7961605 -0.55650681 -0.20107476 4281754385
3.8020949 -0.57094079 -0.20149344 4281754385
3.8000791 -0.58420914 -0.20149344 4281754385
3.7919936 -0.59720111 -0.20117943 4281754385
3.7859421 -0.60979873 -0.20097008 4281754385
3.7897024 -0.62398386 -0.20128411 4281754385
3.7973495 -0.63886547 -0.20180747 4281754385
3.7990329 -0.65279323 -0.20201682 4281754385
3.7849278 -0.66397977 -0.20138879 4281754385
3.7865191 -0.67789143 -0.20159812 4281754385
3.790024 -0.69218123 -0.20191215 4281754385
3.77789 -0.70291895 -0.20138879 4281754385
3.7911112 -0.71907943 -0.20222615 4281754385
3.7905393 -0.73268753 -0.20233083 4281754385
3.7781606 -0.74398512 -0.20180747 4281754385
3.7951231 -0.76109612 -0.20285419 4281754385
3.7885296 -0.77353978 -0.20264484 4281754385
3.7858062 -0.78675956 -0.20264484 4281754385
3.7830369 -0.79996967 -0.20264484 4281754385
3.7802215 -0.81317008 -0.20264484 4281754385
3.7871153 -0.82849473 -0.2031682 4281754385
3.7861502 -0.84214288 -0.20327288 4281754385
3.792928 -0.8575561 -0.20379624 4281754385
3.7840717 -0.8694489 -0.20348223 4281754385
3.763509 -0.87856609 -0.20254017 4281754385
4.0136843 -0.27925628 -0.070228487 4281754385
4.0286398 -0.294431 -0.07050772 4281754385
4.0236001 -0.30818641 -0.070437916 4281754385
4.0304728 -0.32286817 -0.070577532 4281754385
4.0532346 -0.33893484 -0.070996389 4281754385
4.0679636 -0.35446993 -0.071275629 4281754385
4.0667014 -0.36866754 -0.071275629 4281754385
4.0414991 -0.38061085 -0.070856772 4281754385
4.0362349 -0.39362267 -0.07078696 4281754385
4.0427942 -0.40851352 -0.070926577 4281754385
4.0333886 -0.42179108 -0.07078696 4281754385
4.0398436 -0.43672734 -0.070926577 4281754385
4.0262918 -0.45019791 -0.070717148 4281754385
4.0127769 -0.46287465 -0.07050772 4281754385
4.0191631 -0.47712192 -0.070647344 4281754385
4.0214424 -0.4916338 -0.070717148 4281754385
4.0236702 -0.50616753 -0.07078696 4281754385
4.0060134 -0.51815748 -0.07050772 4281754385
4.0121093 -0.53319168 -0.070647344 4281754385
4.0141864 -0.54773402 -0.070717148 4281754385
4.0163088 -0.56159639 -0.07078696 4281754385
4.0143242 -0.57561249 -0.07078696 4281754385
4.0043769 -0.5884586 -0.070647344 4281754385
4.0022984 -0.60243291 -0.070647344 4281754385
4.0001707 -0.61639988 -0.070647344 4281754385
4.0137973 -0.63285089 -0.070926577 4281754385
4.0114508 -0.64755797 -0.070926577 4281754385
4.0012741 -0.6602543 -0.07078696 4281754385
3.9989448 -0.67421734 -0.07078696 4281754385
4.0083914 -0.69020814 -0.070996389 4281754385
4.0138354 -0.70558059 -0.071136013 4281754385
4.0192213 -0.7209996 -0.071275629 4281754385
3.9971368 -0.73072773 -0.070926577 4281754385
3.9945619 -0.74467587 -0.070926577 4281754385
3.9939024 -0.75898826 -0.070961483 4281754385
3.9326997 -0.1923411 -0.068727575 4282676038
3.9459829 -0.20680022 -0.06897191 4282676038
3.9612484 -0.22077462 -0.06925115 4282676038
3.9604945 -0.23390938 -0.06925115 4282676038
3.9756203 -0.24873158 -0.06953039 4282676038
3.9906905 -0.26366222 -0.069809623 4282676038
3.8485122 -0.1942838 0.067261577 4282676038
3.8657818 -0.20868658 0.067575715 4282676038
3.8730543 -0.2219625 0.067715339 4282676038
3.8882649 -0.23577304 0.067994572 4282676038
3.8914094 -0.24960016 0.068064384 4282676038
3.9024854 -0.26399198 0.068273813 4282676038
3.9135082 -0.27846417 0.068483248 4282676038
3.9324539 -0.29361209 0.068832293 4282676038
3.9513409 -0.30889562 0.069181338 4282676038
3.9422662 -0.32203525 0.069041722 4282676038
3.9670203 -0.33800131 0.069495484 4282676038
3.967747 -0.35271597 0.06953039 4282676038
3.998415 -0.36881027 0.070088863 4282676038
4.0150194 -0.38448071 0.07040301 4282676038
4.0157118 -0.39799008 0.070437916 4282676038
4.0262337 -0.41323006 0.070647344 4282676038
4.044652 -0.42939287 0.070996389 4282676038
4.0649157 -0.44661668 0.07138034 4282676038
4.0772405 -0.46238047 0.071624674 4282676038
4.0795741 -0.47707444 0.071694486 4282676038
4.0898819 -0.49203324 0.071903922 4282676038
4.1119542 -0.50925601 0.072322771 4282676038
4.1260209 -0.52562797 0.072602011 4282676038
4.1519194 -0.54366195 0.07309068 4282676038
4.151978 -0.55841815 0.073125578 4282676038
4.1658511 -0.57509559 0.073404826 4282676038
3.8369246 -0.27436104 0.20159812 4282676038
3.837935 -0.28790215 0.20170279 4282676038
3.8568177 -0.30286083 0.20274951 4282676038
3.8676805 -0.31730166 0.20337754 4282676038
3.8864493 -0.33250293 0.20442426 4282676038
3.8892436 -0.34642154 0.20463361 4282676038
3.8999434 -0.36110029 0.20526163 4282676038
3.9146295 -0.37555686 0.20609902 4282676038
3.937144 -0.39159125 0.20735508 4282676038
3.9437003 -0.40615052 0.20777377 4282676038
3.9482167 -0.42054877 0.20808777 4282676038
3.9565749 -0.43611097 0.20861115 4282676038
3.9748728 -0.45217678 0.20965785 4282676038
3.9892216 -0.46721414 0.21049525 4282676038
4.0034289 -0.48305026 0.2113326 4282676038
4.0136108 -0.49849898 0.21196064 4282676038
4.0197706 -0.51351839 0.21237932 4282676038
4.0417171 -0.53066695 0.2136354 4282676038
4.0635924 -0.54797488 0.21489146 4282676038
4.0815372 -0.56418204 0.21593818 4282676038
4.0696554 -0.57702392 0.21541482 4282676038
3.8295922 -0.36874777 0.33659548 4282676038
3.8362114 -0.38290483 0.3372927 4282676038
3.8547394 -0.39766863 0.33903584 4282676038
3.8770294 -0.41433492 0.34112757 4282676038
3.883481 -0.42874026 0.34182483 4282676038
3.8898017 -0.44387463 0.34252208 4282676038
3.8962235 -0.45770106 0.34321931 4282676038
3.9104254 -0.47321349 0.34461379 4282676038
3.9325607 -0.48912933 0.34670553 4282676038
3.9426873 -0.50437051 0.34775141 4282676038
3.9488041 -0.51916879 0.34844866 4282676038
3.9588144 -0.53454912 0.34949452 4282676038
3.9727128 -0.55055273 0.350889 4282676038
3.8633103 -0.50930041 0.47845906 4282676038
3.8615091 -0.5227828 0.47845906 4282676038
3.8675253 -0.53735155 0.47943404 4282676038
3.8814447 -0.55241126 0.48138395 4282676038
3.9030645 -0.56939548 0.48430881 4282676038
