# .PCD v0.7 - Point Cloud Data file format
VERSION 0.7
FIELDS x y z intensity
SIZE 4 4 4 4
TYPE F F F F
COUNT 1 1 1 1
WIDTH 125
HEIGHT 1
VIEWPOINT 0 0 0 1 0 0 0
POINTS 125
DATA ascii
4.206636 -0.60562009 0.048603524 100
4.1995072 -0.61246377 0.069217026 100
4.1947308 -0.61200792 0.076265551 100
4.1899538 -0.61155206 0.083314076 100
4.1851773 -0.6110962 0.090362594 100
4.1804008 -0.61064035 0.097411118 100
4.1756239 -0.61018449 0.10445964 100
4.1708474 -0.60972863 0.11150817 100
4.1660705 -0.60927278 0.11855669 100
4.161294 -0.60881692 0.12560521 100
4.156517 -0.60836107 0.13265374 100
4.1517406 -0.60790521 0.13970226 100
4.1469641 -0.60744935 0.14675078 100
4.1421871 -0.6069935 0.15379931 100
4.1374106 -0.60653764 0.16084783 100
4.1326337 -0.60608178 0.16789636 100
4.1278572 -0.60562593 0.17494489 100
4.1230807 -0.60517007 0.18199341 100
4.1183038 -0.60471421 0.18904194 100
4.1135273 -0.6042583 0.19609047 100
4.1087503 -0.60380244 0.20313899 100
4.1039739 -0.60334659 0.21018752 100
4.0991969 -0.60289073 0.21723606 100
4.0944204 -0.60243487 0.22428457 100
4.0896435 -0.60197902 0.23133311 100
4.084867 -0.60152316 0.23838164 100
4.0800905 -0.6010673 0.24543016 100
4.0753136 -0.60061145 0.25247869 100
4.0705371 -0.60015559 0.25952721 100
4.0657601 -0.59969974 0.26657572 100
4.0609837 -0.59924388 0.27362424 100
4.0562072 -0.59878802 0.28067276 100
4.0514302 -0.59833217 0.28772128 100
4.0466537 -0.59787631 0.29476979 100
4.0418768 -0.59742045 0.30181828 100
4.0371003 -0.5969646 0.3088668 100
4.0323234 -0.59650874 0.31591532 100
4.0275469 -0.59605289 0.32296383 100
4.0227704 -0.59559703 0.33001235 100
4.0179935 -0.59514117 0.33706087 100
4.013217 -0.59468532 0.34410939 100
4.00844 -0.59422946 0.3511579 100
4.0036635 -0.5937736 0.35820642 100
3.9988868 -0.59331775 0.36525494 100
3.9941101 -0.59286183 0.37230346 100
3.9893336 -0.59240597 0.37935197 100
3.9845569 -0.59195012 0.38640049 100
3.9797802 -0.59149426 0.39344901 100
3.9750035 -0.59103841 0.40049753 100
3.9702268 -0.59058255 0.40754604 100
3.96545 -0.59012669 0.41459456 100
3.9606736 -0.58967084 0.42164308 100
3.9558969 -0.58921498 0.4286916 100
3.9511201 -0.58875912 0.43574011 100
3.9463434 -0.58830327 0.44278863 100
3.9415667 -0.58784741 0.44983715 100
4.2026553 -0.59874481 0.045762029 100
4.1986747 -0.59186947 0.042920534 100
4.1946945 -0.5849942 0.040079039 100
4.1907139 -0.57811892 0.037237544 100
4.1867337 -0.57124358 0.034396049 100
4.1827531 -0.56436831 0.031554554 100
4.1787729 -0.55749303 0.028713059 100
4.1747923 -0.55061769 0.025871564 100
4.1708121 -0.54374242 0.023030069 100
4.1668315 -0.53686714 0.020188576 100
4.1628513 -0.52999181 0.017347081 100
4.1588707 -0.52311653 0.014505586 100
4.1548905 -0.51624125 0.01166409 100
4.1509099 -0.50936592 0.0088225929 100
4.1469297 -0.50249064 0.0059810965 100
4.1429491 -0.49561533 0.0031396002 100
4.1389689 -0.48874003 0.00029810355 100
4.1349883 -0.48186472 -0.0025433928 100
4.1310081 -0.47498941 -0.0053848894 100
4.1270275 -0.46811411 -0.0082263863 100
4.1230474 -0.46123883 -0.011067882 100
4.1190667 -0.45436352 -0.013909379 100
4.1150866 -0.44748822 -0.016750876 100
4.1111059 -0.44061291 -0.019592373 100
4.1071258 -0.43373761 -0.022433868 100
4.1031451 -0.42686233 -0.025275361 100
4.099165 -0.41998702 -0.028116852 100
4.0951843 -0.41311175 -0.030958345 100
4.0912042 -0.40623644 -0.033799838 100
4.0872235 -0.39936116 -0.03664133 100
4.0832434 -0.39248586 -0.039482821 100
4.0792627 -0.38561058 -0.042324316 100
4.0752826 -0.3787353 -0.045165807 100
4.0713019 -0.37186 -0.048007298 100
4.0673218 -0.36498472 -0.05084879 100
4.0633411 -0.35810941 -0.053690284 100
4.059361 -0.35123414 -0.056531776 100
4.0553803 -0.34435883 -0.059373267 100
4.0514002 -0.33748356 -0.062214762 100
4.0474195 -0.33060825 -0.065056249 100
4.0434394 -0.32373297 -0.067897744 100
4.0394588 -0.31685767 -0.070739239 100
4.0354786 -0.30998239 -0.073580727 100
4.031498 -0.30310708 -0.076422222 100
4.0275178 -0.29623181 -0.079263717 100
4.0235372 -0.2893565 -0.082105204 100
4.019557 -0.28248122 -0.084946699 100
4.0155764 -0.27560592 -0.087788187 100
4.0115962 -0.26873064 -0.090629682 100
4.0076156 -0.26185533 -0.093471177 100
4.0036354 -0.25498006 -0.096312664 100
3.916533 -0.85176051 -0.11551824 100
3.9236472 -0.84601104 -0.11147697 100
3.9307613 -0.84026164 -0.10743571 100
3.9378755 -0.83451217 -0.10339444 100
3.9449899 -0.82876271 -0.099353172 100
3.9521041 -0.82301325 -0.09531191 100
3.9592183 -0.81726378 -0.09127064 100
3.9663324 -0.81151438 -0.087229371 100
3.9734466 -0.80576491 -0.083188109 100
3.9805608 -0.80001545 -0.07914684 100
3.9876752 -0.79426605 -0.075105578 100
3.9947894 -0.78851658 -0.071064308 100
4.0019035 -0.78276712 -0.067023046 100
4.0090179 -0.77701765 -0.062981777 100
4.0161319 -0.77126825 -0.058940504 100
4.0232463 -0.76551878 -0.054899238 100
4.0303602 -0.75976932 -0.050857969 100
4.0374746 -0.75401986 -0.046816699 100
