# .PCD v0.7 - Point Cloud Data file format
VERSION 0.7
FIELDS x y z intensity
SIZE 4 4 4 4
TYPE F F F F
COUNT 1 1 1 1
WIDTH 141
HEIGHT 1
VIEWPOINT 0 0 0 1 0 0 0
POINTS 141
DATA ascii
3.9144828 -0.85015398 -0.11645763 100
3.9215815 -0.84434444 -0.11247521 100
3.9286799 -0.83853495 -0.10849278 100
3.9357786 -0.83272541 -0.10451035 100
3.9428771 -0.82691592 -0.10052793 100
3.9499757 -0.82110637 -0.096545495 100
3.9570744 -0.81529689 -0.09256307 100
3.9641728 -0.80948734 -0.088580638 100
3.9712715 -0.80367786 -0.084598213 100
3.97837 -0.79786831 -0.080615789 100
3.9854686 -0.79205883 -0.076633364 100
3.9925671 -0.78624928 -0.072650939 100
3.9996657 -0.78043979 -0.068668507 100
4.0067644 -0.77463025 -0.064686082 100
4.0138631 -0.76882076 -0.06070365 100
4.0209613 -0.76301122 -0.056721222 100
4.02806 -0.75720173 -0.052738789 100
4.0351586 -0.75139219 -0.048756361 100
4.0422573 -0.74558264 -0.044773933 100
4.049356 -0.73977315 -0.040791504 100
4.0564542 -0.73396361 -0.036809072 100
4.0635529 -0.72815412 -0.032826643 100
4.0706515 -0.72234458 -0.028844213 100
4.0777502 -0.71653509 -0.024861785 100
4.0848489 -0.71072555 -0.020879354 100
4.0919471 -0.704916 -0.016896926 100
4.0990458 -0.69910651 -0.012914501 100
4.1061444 -0.69329703 -0.0089320783 100
4.1132431 -0.68748748 -0.0049496545 100
4.1203418 -0.681678 -0.00096723076 100
4.12744 -0.67586845 0.0030151929 100
4.1345387 -0.67005897 0.0069976165 100
4.1416373 -0.66424942 0.01098004 100
4.148736 -0.65843993 0.014962464 100
4.1558342 -0.65263045 0.018944887 100
4.1629329 -0.6468209 0.02292731 100
4.1700315 -0.64101142 0.026909735 100
4.1771302 -0.63520187 0.030892158 100
4.1842289 -0.62939239 0.034874581 100
4.1913271 -0.62358284 0.038857006 100
4.1961193 -0.60719156 0.070117675 100
4.191381 -0.60682184 0.077191763 100
4.1866431 -0.60645211 0.084265843 100
4.1819053 -0.60608238 0.091339931 100
4.1771674 -0.60571265 0.098414011 100
4.1724296 -0.60534292 0.1054881 100
4.1676917 -0.6049732 0.11256218 100
4.1629539 -0.60460347 0.11963627 100
4.158216 -0.60423374 0.12671034 100
4.1534781 -0.60386401 0.13378443 100
4.1487403 -0.60349429 0.14085852 100
4.1440024 -0.60312456 0.14793259 100
4.1392646 -0.60275483 0.15500668 100
4.1345267 -0.6023851 0.16208076 100
4.1297889 -0.60201538 0.16915485 100
4.1250505 -0.60164565 0.17622894 100
4.1203127 -0.60127592 0.18330303 100
4.1155748 -0.60090619 0.19037712 100
4.110837 -0.60053647 0.1974512 100
4.1060991 -0.60016674 0.20452529 100
4.1013613 -0.59979701 0.21159938 100
4.0966234 -0.59942728 0.21867347 100
4.0918856 -0.5990575 0.22574756 100
4.0871477 -0.59868777 0.23282164 100
4.0824099 -0.59831804 0.23989573 100
4.077672 -0.59794831 0.24696982 100
4.0729342 -0.59757859 0.25404391 100
4.0681963 -0.59720886 0.26111796 100
4.0634584 -0.59683913 0.26819205 100
4.0587206 -0.5964694 0.27526614 100
4.0539823 -0.59609967 0.2823402 100
4.0492444 -0.59572995 0.28941429 100
4.0445065 -0.59536022 0.29648834 100
4.0397687 -0.59499049 0.30356243 100
4.0350308 -0.59462076 0.31063652 100
4.030293 -0.59425104 0.31771058 100
4.0255551 -0.59388131 0.32478467 100
4.0208173 -0.59351158 0.33185875 100
4.0160794 -0.59314185 0.33893281 100
4.0113416 -0.59277213 0.3460069 100
4.0066037 -0.5924024 0.35308099 100
4.0018659 -0.59203267 0.36015505 100
3.9971278 -0.59166294 0.36722913 100
3.9923899 -0.59129322 0.37430319 100
3.9876521 -0.59092349 0.38137728 100
3.9829142 -0.59055376 0.38845137 100
3.9781764 -0.59018403 0.39552543 100
3.9734385 -0.58981431 0.40259951 100
3.9687006 -0.58944458 0.4096736 100
3.9639628 -0.58907485 0.41674766 100
3.9592249 -0.58870512 0.42382175 100
3.9544868 -0.58833539 0.43089584 100
3.949749 -0.58796567 0.43796989 100
3.9450111 -0.58759594 0.44504398 100
3.9402733 -0.58722621 0.45211807 100
4.1781149 -0.55379939 0.026639028 100
4.1741948 -0.54710716 0.023849241 100
4.1702743 -0.54041499 0.021059457 100
4.1663537 -0.53372276 0.018269671 100
4.1624331 -0.52703053 0.015479887 100
4.1585126 -0.5203383 0.012690101 100
4.154592 -0.51364607 0.0099003157 100
4.150672 -0.50695384 0.007110531 100
4.1467514 -0.50026166 0.0043207468 100
4.1428308 -0.49356943 0.0015309621 100
4.1389103 -0.4868772 -0.0012588225 100
4.1349897 -0.480185 -0.0040486068 100
4.1310697 -0.47349277 -0.0068383915 100
4.1271491 -0.46680054 -0.0096281776 100
4.1232285 -0.46010834 -0.012417965 100
4.119308 -0.45341611 -0.015207752 100
4.1153874 -0.44672388 -0.017997539 100
4.1114669 -0.44003165 -0.020787325 100
4.1075468 -0.43333945 -0.023577111 100
4.1036263 -0.42664722 -0.026366897 100
4.0997057 -0.41995499 -0.029156685 100
4.0957851 -0.41326275 -0.031946469 100
4.0918646 -0.40657055 -0.034736257 100
4.087944 -0.39987832 -0.037526045 100
4.084024 -0.39318609 -0.040315829 100
4.0801034 -0.38649389 -0.043105617 100
4.0761828 -0.37980166 -0.045895401 100
4.0722623 -0.37310946 -0.048685182 100
4.0683417 -0.36641723 -0.051474966 100
4.0644217 -0.35972503 -0.054264747 100
4.0605011 -0.35303283 -0.057054531 100
4.0565805 -0.3463406 -0.059844311 100
4.05266 -0.3396484 -0.062634096 100
4.0487394 -0.33295617 -0.065423876 100
4.0448194 -0.32626396 -0.068213657 100
4.0408988 -0.31957176 -0.071003444 100
4.0369782 -0.31287953 -0.073793225 100
4.0330577 -0.30618733 -0.076583005 100
4.0291371 -0.2994951 -0.079372786 100
4.0252166 -0.2928029 -0.082162574 100
4.0212965 -0.2861107 -0.084952354 100
4.0173759 -0.27941847 -0.087742135 100
4.0134554 -0.27272627 -0.090531915 100
4.0095348 -0.26603404 -0.093321703 100
4.0056143 -0.25934184 -0.096111484 100
4.0016942 -0.25264964 -0.098901264 100
