# .PCD v0.7 - Point Cloud Data file format
VERSION 0.7
FIELDS x y z rgb
SIZE 4 4 4 4
TYPE F F F U
COUNT 1 1 1 1
WIDTH 1134
HEIGHT 1
VIEWPOINT 0 0 0 1 0 0 0
POINTS 1134
DATA ascii
-15.637855 7.3290849 -4.713613 4278190335
-15.627876 7.3290849 -4.713613 4278190335
-15.617899 7.3290849 -4.713613 4278190335
-15.607922 7.3290849 -4.713613 4278190335
-15.597944 7.3290849 -4.713613 4278190335
-15.587966 7.3290849 -4.713613 4278190335
-15.577989 7.3290849 -4.713613 4278190335
-15.568011 7.3290849 -4.713613 4278190335
-15.558034 7.3290849 -4.713613 4278190335
-15.548056 7.3290849 -4.713613 4278190335
-15.538078 7.3290849 -4.713613 4278190335
-15.528101 7.3290849 -4.713613 4278190335
-15.518124 7.3290849 -4.713613 4278190335
-15.508145 7.3290849 -4.713613 4278190335
-15.498168 7.3290849 -4.713613 4278190335
-15.488191 7.3290849 -4.713613 4278190335
-15.478213 7.3290849 -4.713613 4278190335
-15.468235 7.3290849 -4.713613 4278190335
-15.458258 7.3290849 -4.713613 4278190335
-15.44828 7.3290849 -4.713613 4278190335
-15.438303 7.3290849 -4.713613 4278190335
-15.428326 7.3290849 -4.713613 4278190335
-15.418347 7.3290849 -4.713613 4278190335
-15.40837 7.3290849 -4.713613 4278190335
-15.398393 7.3290849 -4.713613 4278190335
-15.388415 7.3290849 -4.713613 4278190335
-15.378437 7.3290849 -4.713613 4278190335
-15.36846 7.3290849 -4.713613 4278190335
-15.358482 7.3290849 -4.713613 4278190335
-15.348505 7.3290849 -4.713613 4278190335
-15.338527 7.3290849 -4.713613 4278190335
-15.328549 7.3290849 -4.713613 4278190335
-15.318572 7.3290849 -4.713613 4278190335
-15.308595 7.3290849 -4.713613 4278190335
-15.298616 7.3290849 -4.713613 4278190335
-15.288639 7.3290849 -4.713613 4278190335
-15.278662 7.3290849 -4.713613 4278190335
-15.268684 7.3290849 -4.713613 4278190335
-15.258707 7.3290849 -4.713613 4278190335
-15.248729 7.3290849 -4.713613 4278190335
-15.238751 7.3290849 -4.713613 4278190335
-15.228774 7.3290849 -4.713613 4278190335
-15.218797 7.3290849 -4.713613 4278190335
-15.208818 7.3290849 -4.713613 4278190335
-15.198841 7.3290849 -4.713613 4278190335
-15.188864 7.3290849 -4.713613 4278190335
-15.178886 7.3290849 -4.713613 4278190335
-15.168908 7.3290849 -4.713613 4278190335
-15.158931 7.3290849 -4.713613 4278190335
-15.148953 7.3290849 -4.713613 4278190335
-15.138976 7.3290849 -4.713613 4278190335
-15.128998 7.3290849 -4.713613 4278190335
-15.11902 7.3290849 -4.713613 4278190335
-15.109043 7.3290849 -4.713613 4278190335
-15.109043 7.3290849 -4.713613 4278190335
-15.109043 7.3390737 -4.713613 4278190335
-15.109043 7.3490624 -4.713613 4278190335
-15.109043 7.3590512 -4.713613 4278190335
-15.109043 7.36904 -4.713613 4278190335
-15.109043 7.3790288 -4.713613 4278190335
-15.109043 7.3890176 -4.713613 4278190335
-15.109043 7.3990064 -4.713613 4278190335
-15.109043 7.4089952 -4.713613 4278190335
-15.109043 7.4189839 -4.713613 4278190335
-15.109043 7.4289727 -4.713613 4278190335
-15.109043 7.4389615 -4.713613 4278190335
-15.109043 7.4489503 -4.713613 4278190335
-15.109043 7.4589391 -4.713613 4278190335
-15.109043 7.4689279 -4.713613 4278190335
-15.109043 7.4789166 -4.713613 4278190335
-15.109043 7.4889054 -4.713613 4278190335
-15.109043 7.4988942 -4.713613 4278190335
-15.109043 7.508883 -4.713613 4278190335
-15.109043 7.5188718 -4.713613 4278190335
-15.109043 7.5288606 -4.713613 4278190335
-15.109043 7.5388494 -4.713613 4278190335
-15.109043 7.5488381 -4.713613 4278190335
-15.109043 7.5588269 -4.713613 4278190335
-15.109043 7.5688157 -4.713613 4278190335
-15.109043 7.5788045 -4.713613 4278190335
-15.109043 7.5887933 -4.713613 4278190335
-15.109043 7.5987821 -4.713613 4278190335
-15.109043 7.6087708 -4.713613 4278190335
-15.109043 7.6187596 -4.713613 4278190335
-15.109043 7.6287484 -4.713613 4278190335
-15.109043 7.6387372 -4.713613 4278190335
-15.109043 7.648726 -4.713613 4278190335
-15.109043 7.6587148 -4.713613 4278190335
-15.109043 7.6687036 -4.713613 4278190335
-15.109043 7.6786923 -4.713613 4278190335
-15.109043 7.6886811 -4.713613 4278190335
-15.109043 7.6986699 -4.713613 4278190335
-15.109043 7.7086587 -4.713613 4278190335
-15.109043 7.718648 -4.713613 4278190335
-15.109043 7.7286363 -4.713613 4278190335
-15.109043 7.738625 -4.713613 4278190335
-15.109043 7.7486143 -4.713613 4278190335
-15.109043 7.7586031 -4.713613 4278190335
-15.109043 7.7685914 -4.713613 4278190335
-15.109043 7.7785807 -4.713613 4278190335
-15.109043 7.7885695 -4.713613 4278190335
-15.109043 7.7985582 -4.713613 4278190335
-15.109043 7.808547 -4.713613 4278190335
-15.109043 7.8185358 -4.713613 4278190335
-15.109043 7.8285246 -4.713613 4278190335
-15.109043 7.8385134 -4.713613 4278190335
-15.109043 7.8485022 -4.713613 4278190335
-15.109043 7.8584909 -4.713613 4278190335
-15.109043 7.8684797 -4.713613 4278190335
-15.109043 7.8784685 -4.713613 4278190335
-15.109043 7.8884573 -4.713613 4278190335
-15.109043 7.8984461 -4.713613 4278190335
-15.109043 7.9084349 -4.713613 4278190335
-15.109043 7.9184237 -4.713613 4278190335
-15.109043 7.9284124 -4.713613 4278190335
-15.109043 7.9384012 -4.713613 4278190335
-15.109043 7.94839 -4.713613 4278190335
-15.109043 7.9583788 -4.713613 4278190335
-15.109043 7.9683676 -4.713613 4278190335
-15.109043 7.9783564 -4.713613 4278190335
-15.109043 7.9883451 -4.713613 4278190335
-15.109043 7.9983339 -4.713613 4278190335
-15.109043 8.0083227 -4.713613 4278190335
-15.109043 8.0183115 -4.713613 4278190335
-15.109043 8.0283003 -4.713613 4278190335
-15.109043 8.0382891 -4.713613 4278190335
-15.109043 8.0482779 -4.713613 4278190335
-15.109043 8.0582666 -4.713613 4278190335
-15.109043 8.0682554 -4.713613 4278190335
-15.109043 8.0782442 -4.713613 4278190335
-15.109043 8.088233 -4.713613 4278190335
-15.109043 8.0982218 -4.713613 4278190335
-15.109043 8.1082106 -4.713613 4278190335
-15.109043 8.1181993 -4.713613 4278190335
-15.109043 8.1281881 -4.713613 4278190335
-15.109043 8.1381769 -4.713613 4278190335
-15.109043 8.1481657 -4.713613 4278190335
-15.109043 8.1581545 -4.713613 4278190335
-15.109043 8.1681433 -4.713613 4278190335
-15.109043 8.1781321 -4.713613 4278190335
-15.109043 8.1881208 -4.713613 4278190335
-15.109043 8.1981096 -4.713613 4278190335
-15.109043 8.2080984 -4.713613 4278190335
-15.109043 8.2180872 -4.713613 4278190335
-15.109043 8.228076 -4.713613 4278190335
-15.109043 8.2380648 -4.713613 4278190335
-15.109043 8.2480536 -4.713613 4278190335
-15.109043 8.2580423 -4.713613 4278190335
-15.109043 8.2680311 -4.713613 4278190335
-15.109043 8.2780199 -4.713613 4278190335
-15.109043 8.2880087 -4.713613 4278190335
-15.109043 8.2979975 -4.713613 4278190335
-15.109043 8.3079863 -4.713613 4278190335
-15.109043 8.317975 -4.713613 4278190335
-15.109043 8.3279638 -4.713613 4278190335
-15.109043 8.3379526 -4.713613 4278190335
-15.109043 8.3479414 -4.713613 4278190335
-15.109043 8.3579302 -4.713613 4278190335
-15.109043 8.367919 -4.713613 4278190335
-15.109043 8.3779078 -4.713613 4278190335
-15.109043 8.3878965 -4.713613 4278190335
-15.109043 8.3978853 -4.713613 4278190335
-15.109043 8.4078741 -4.713613 4278190335
-15.109043 8.4178629 -4.713613 4278190335
-15.109043 8.4278517 -4.713613 4278190335
-15.109043 8.4378405 -4.713613 4278190335
-15.109043 8.4478292 -4.713613 4278190335
-15.109043 8.457818 -4.713613 4278190335
-15.109043 8.4678068 -4.713613 4278190335
-15.109043 8.4777956 -4.713613 4278190335
-15.109043 8.4877844 -4.713613 4278190335
-15.109043 8.4977732 -4.713613 4278190335
-15.109043 8.507762 -4.713613 4278190335
-15.109043 8.5177507 -4.713613 4278190335
-15.109043 8.5277395 -4.713613 4278190335
-15.109043 8.5377283 -4.713613 4278190335
-15.109043 8.5477171 -4.713613 4278190335
-15.109043 8.5577059 -4.713613 4278190335
-15.109043 8.5676947 -4.713613 4278190335
-15.109043 8.5776834 -4.713613 4278190335
-15.109043 8.5876722 -4.713613 4278190335
-15.109043 8.597661 -4.713613 4278190335
-15.109043 8.6076498 -4.713613 4278190335
-15.109043 8.6176386 -4.713613 4278190335
-15.109043 8.6276274 -4.713613 4278190335
-15.109043 8.6376162 -4.713613 4278190335
-15.109043 8.6476049 -4.713613 4278190335
-15.109043 8.6575937 -4.713613 4278190335
-15.109043 8.6675825 -4.713613 4278190335
-15.109043 8.6775713 -4.713613 4278190335
-15.109043 8.6875601 -4.713613 4278190335
-15.109043 8.6975489 -4.713613 4278190335
-15.109043 8.7075377 -4.713613 4278190335
-15.109043 8.7175264 -4.713613 4278190335
-15.109043 8.7275152 -4.713613 4278190335
-15.109043 8.737504 -4.713613 4278190335
-15.109043 8.7474928 -4.713613 4278190335
-15.109043 8.7574816 -4.713613 4278190335
-15.109043 8.7674704 -4.713613 4278190335
-15.109043 8.7774591 -4.713613 4278190335
-15.109043 8.7874479 -4.713613 4278190335
-15.109043 8.7974367 -4.713613 4278190335
-15.109043 8.8074255 -4.713613 4278190335
-15.109043 8.8174143 -4.713613 4278190335
-15.109043 8.8274031 -4.713613 4278190335
-15.109043 8.8373919 -4.713613 4278190335
-15.109043 8.8473806 -4.713613 4278190335
-15.109043 8.8573694 -4.713613 4278190335
-15.109043 8.8673582 -4.713613 4278190335
-15.109043 8.877347 -4.713613 4278190335
-15.109043 8.8873367 -4.713613 4278190335
-15.109043 8.8973246 -4.713613 4278190335
-15.109043 8.9073133 -4.713613 4278190335
-15.109043 8.9173031 -4.713613 4278190335
-15.109043 8.9272909 -4.713613 4278190335
-15.109043 8.9372797 -4.713613 4278190335
-15.109043 8.9472694 -4.713613 4278190335
-15.109043 8.9572573 -4.713613 4278190335
-15.109043 8.9672461 -4.713613 4278190335
-15.109043 8.9772358 -4.713613 4278190335
-15.109043 8.9872246 -4.713613 4278190335
-15.109043 8.9972124 -4.713613 4278190335
-15.109043 9.0072021 -4.713613 4278190335
-15.109043 9.0171909 -4.713613 4278190335
-15.109043 9.0271788 -4.713613 4278190335
-15.109043 9.0371685 -4.713613 4278190335
-15.109043 9.0471573 -4.713613 4278190335
-15.109043 9.0571451 -4.713613 4278190335
-15.109043 9.0671349 -4.713613 4278190335
-15.109043 9.0771236 -4.713613 4278190335
-15.109043 9.0871115 -4.713613 4278190335
-15.109043 9.0971012 -4.713613 4278190335
-15.109043 9.10709 -4.713613 4278190335
-15.109043 9.1170788 -4.713613 4278190335
-15.109043 9.1270676 -4.713613 4278190335
-15.109043 9.1370564 -4.713613 4278190335
-15.109043 9.1470451 -4.713613 4278190335
-15.109043 9.1570339 -4.713613 4278190335
-15.109043 9.1670227 -4.713613 4278190335
-15.109043 9.1770115 -4.713613 4278190335
-15.109043 9.1870003 -4.713613 4278190335
-15.109043 9.1969891 -4.713613 4278190335
-15.109043 9.2069778 -4.713613 4278190335
-15.109043 9.2169666 -4.713613 4278190335
-15.109043 9.2269554 -4.713613 4278190335
-15.109043 9.2369442 -4.713613 4278190335
-15.109043 9.246933 -4.713613 4278190335
-15.109043 9.2569218 -4.713613 4278190335
-15.109043 9.2669106 -4.713613 4278190335
-15.109043 9.2768993 -4.713613 4278190335
-15.109043 9.2868881 -4.713613 4278190335
-15.109043 9.2968769 -4.713613 4278190335
-15.109043 9.3068657 -4.713613 4278190335
-15.109043 9.3168545 -4.713613 4278190335
-15.109043 9.3268433 -4.713613 4278190335
-15.109043 9.336832 -4.713613 4278190335
-15.109043 9.3468208 -4.713613 4278190335
-15.109043 9.3568096 -4.713613 4278190335
-15.109043 9.3667984 -4.713613 4278190335
-15.109043 9.3767872 -4.713613 4278190335
-15.109043 9.386776 -4.713613 4278190335
-15.109043 9.3967648 -4.713613 4278190335
-15.109043 9.4067535 -4.713613 4278190335
-15.109043 9.4167423 -4.713613 4278190335
-15.109043 9.4267311 -4.713613 4278190335
-15.109043 9.4367199 -4.713613 4278190335
-15.109043 9.4467087 -4.713613 4278190335
-15.109043 9.4566975 -4.713613 4278190335
-15.109043 9.4666862 -4.713613 4278190335
-15.109043 9.476675 -4.713613 4278190335
-15.109043 9.4866638 -4.713613 4278190335
-15.109043 9.4966526 -4.713613 4278190335
-15.109043 9.5066414 -4.713613 4278190335
-15.109043 9.5166302 -4.713613 4278190335
-15.109043 9.526619 -4.713613 4278190335
-15.109043 9.5366077 -4.713613 4278190335
-15.109043 9.5465965 -4.713613 4278190335
-15.109043 9.5565853 -4.713613 4278190335
-15.109043 9.5665741 -4.713613 4278190335
-15.109043 9.5765629 -4.713613 4278190335
-15.109043 9.5865517 -4.713613 4278190335
-15.109043 9.5965405 -4.713613 4278190335
-15.109043 9.6065292 -4.713613 4278190335
-15.109043 9.616518 -4.713613 4278190335
-15.109043 9.6265068 -4.713613 4278190335
-15.109043 9.6364956 -4.713613 4278190335
-15.109043 9.6464844 -4.713613 4278190335
-15.109043 9.6564732 -4.713613 4278190335
-15.109043 9.6664619 -4.713613 4278190335
-15.109043 9.6764507 -4.713613 4278190335
-15.109043 9.6864395 -4.713613 4278190335
-15.109043 9.6964283 -4.713613 4278190335
-15.109043 9.7064171 -4.713613 4278190335
-15.109043 9.7164059 -4.713613 4278190335
-15.109043 9.7263947 -4.713613 4278190335
-15.109043 9.7363834 -4.713613 4278190335
-15.109043 9.7463722 -4.713613 4278190335
-15.109043 9.756361 -4.713613 4278190335
-15.109043 9.7663498 -4.713613 4278190335
-15.109043 9.7763386 -4.713613 4278190335
-15.109043 9.7863274 -4.713613 4278190335
-15.109043 9.7963161 -4.713613 4278190335
-15.109043 9.8063049 -4.713613 4278190335
-15.109043 9.8162937 -4.713613 4278190335
-15.109043 9.8262825 -4.713613 4278190335
-15.109043 9.8362713 -4.713613 4278190335
-15.109043 9.8462601 -4.713613 4278190335
-15.109043 9.8562489 -4.713613 4278190335
-15.109043 9.8662376 -4.713613 4278190335
-15.109043 9.8762264 -4.713613 4278190335
-15.109043 9.8862152 -4.713613 4278190335
-15.109043 9.896204 -4.713613 4278190335
-15.109043 9.9061928 -4.713613 4278190335
-15.109043 9.9161816 -4.713613 4278190335
-15.109043 9.9261703 -4.713613 4278190335
-15.109043 9.9361591 -4.713613 4278190335
-15.109043 9.9461479 -4.713613 4278190335
-15.109043 9.9561367 -4.713613 4278190335
-15.109043 9.9561367 -4.713613 4278190335
-15.11902 9.9561367 -4.713613 4278190335
-15.128998 9.9561367 -4.713613 4278190335
-15.138976 9.9561367 -4.713613 4278190335
-15.148953 9.9561367 -4.713613 4278190335
-15.158931 9.9561367 -4.713613 4278190335
-15.168908 9.9561367 -4.713613 4278190335
-15.178886 9.9561367 -4.713613 4278190335
-15.188864 9.9561367 -4.713613 4278190335
-15.198841 9.9561367 -4.713613 4278190335
-15.208818 9.9561367 -4.713613 4278190335
-15.218797 9.9561367 -4.713613 4278190335
-15.228774 9.9561367 -4.713613 4278190335
-15.238751 9.9561367 -4.713613 4278190335
-15.248729 9.9561367 -4.713613 4278190335
-15.258707 9.9561367 -4.713613 4278190335
-15.268684 9.9561367 -4.713613 4278190335
-15.278662 9.9561367 -4.713613 4278190335
-15.288639 9.9561367 -4.713613 4278190335
-15.298616 9.9561367 -4.713613 4278190335
-15.308595 9.9561367 -4.713613 4278190335
-15.318572 9.9561367 -4.713613 4278190335
-15.328549 9.9561367 -4.713613 4278190335
-15.338527 9.9561367 -4.713613 4278190335
-15.348505 9.9561367 -4.713613 4278190335
-15.358482 9.9561367 -4.713613 4278190335
-15.36846 9.9561367 -4.713613 4278190335
-15.378437 9.9561367 -4.713613 4278190335
-15.388415 9.9561367 -4.713613 4278190335
-15.398393 9.9561367 -4.713613 4278190335
-15.40837 9.9561367 -4.713613 4278190335
-15.418347 9.9561367 -4.713613 4278190335
-15.428326 9.9561367 -4.713613 4278190335
-15.438303 9.9561367 -4.713613 4278190335
-15.44828 9.9561367 -4.713613 4278190335
-15.458258 9.9561367 -4.713613 4278190335
-15.468235 9.9561367 -4.713613 4278190335
-15.478213 9.9561367 -4.713613 4278190335
-15.488191 9.9561367 -4.713613 4278190335
-15.498168 9.9561367 -4.713613 4278190335
-15.508145 9.9561367 -4.713613 4278190335
-15.518124 9.9561367 -4.713613 4278190335
-15.528101 9.9561367 -4.713613 4278190335
-15.538078 9.9561367 -4.713613 4278190335
-15.548056 9.9561367 -4.713613 4278190335
-15.558034 9.9561367 -4.713613 4278190335
-15.568011 9.9561367 -4.713613 4278190335
-15.577989 9.9561367 -4.713613 4278190335
-15.587966 9.9561367 -4.713613 4278190335
-15.597944 9.9561367 -4.713613 4278190335
-15.607922 9.9561367 -4.713613 4278190335
-15.617899 9.9561367 -4.713613 4278190335
-15.627876 9.9561367 -4.713613 4278190335
-15.637854 9.9561367 -4.713613 4278190335
-15.647832 9.9561367 -4.713613 4278190335
-15.657809 9.9561367 -4.713613 4278190335
-15.667787 9.9561367 -4.713613 4278190335
-15.677764 9.9561367 -4.713613 4278190335
-15.687742 9.9561367 -4.713613 4278190335
-15.69772 9.9561367 -4.713613 4278190335
-15.707697 9.9561367 -4.713613 4278190335
-15.717674 9.9561367 -4.713613 4278190335
-15.727653 9.9561367 -4.713613 4278190335
-15.73763 9.9561367 -4.713613 4278190335
-15.747607 9.9561367 -4.713613 4278190335
-15.757585 9.9561367 -4.713613 4278190335
-15.767563 9.9561367 -4.713613 4278190335
-15.77754 9.9561367 -4.713613 4278190335
-15.787518 9.9561367 -4.713613 4278190335
-15.797495 9.9561367 -4.713613 4278190335
-15.807473 9.9561367 -4.713613 4278190335
-15.817451 9.9561367 -4.713613 4278190335
-15.827428 9.9561367 -4.713613 4278190335
-15.837405 9.9561367 -4.713613 4278190335
-15.847383 9.9561367 -4.713613 4278190335
-15.857361 9.9561367 -4.713613 4278190335
-15.867338 9.9561367 -4.713613 4278190335
-15.877316 9.9561367 -4.713613 4278190335
-15.887293 9.9561367 -4.713613 4278190335
-15.897271 9.9561367 -4.713613 4278190335
-15.907248 9.9561367 -4.713613 4278190335
-15.917226 9.9561367 -4.713613 4278190335
-15.927203 9.9561367 -4.713613 4278190335
-15.937181 9.9561367 -4.713613 4278190335
-15.947159 9.9561367 -4.713613 4278190335
-15.957136 9.9561367 -4.713613 4278190335
-15.967113 9.9561367 -4.713613 4278190335
-15.977092 9.9561367 -4.713613 4278190335
-15.987069 9.9561367 -4.713613 4278190335
-15.997046 9.9561367 -4.713613 4278190335
-16.007025 9.9561367 -4.713613 4278190335
-16.017002 9.9561367 -4.713613 4278190335
-16.026979 9.9561367 -4.713613 4278190335
-16.036957 9.9561367 -4.713613 4278190335
-16.046934 9.9561367 -4.713613 4278190335
-16.056911 9.9561367 -4.713613 4278190335
-16.066889 9.9561367 -4.713613 4278190335
-16.076866 9.9561367 -4.713613 4278190335
-16.086845 9.9561367 -4.713613 4278190335
-16.096823 9.9561367 -4.713613 4278190335
-16.1068 9.9561367 -4.713613 4278190335
-16.116777 9.9561367 -4.713613 4278190335
-16.126755 9.9561367 -4.713613 4278190335
-16.136732 9.9561367 -4.713613 4278190335
-16.146709 9.9561367 -4.713613 4278190335
-16.156687 9.9561367 -4.713613 4278190335
-16.166664 9.9561367 -4.713613 4278190335
-16.176643 9.9561367 -4.713613 4278190335
-16.186621 9.9561367 -4.713613 4278190335
-16.196598 9.9561367 -4.713613 4278190335
-16.206575 9.9561367 -4.713613 4278190335
-16.206575 9.9561367 -4.713613 4278190335
-16.206575 9.9461479 -4.713613 4278190335
-16.206575 9.9361591 -4.713613 4278190335
-16.206575 9.9261703 -4.713613 4278190335
-16.206575 9.9161816 -4.713613 4278190335
-16.206575 9.9061928 -4.713613 4278190335
-16.206575 9.896204 -4.713613 4278190335
-16.206575 9.8862152 -4.713613 4278190335
-16.206575 9.8762264 -4.713613 4278190335
-16.206575 9.8662376 -4.713613 4278190335
-16.206575 9.8562489 -4.713613 4278190335
-16.206575 9.8462601 -4.713613 4278190335
-16.206575 9.8362713 -4.713613 4278190335
-16.206575 9.8262825 -4.713613 4278190335
-16.206575 9.8162937 -4.713613 4278190335
-16.206575 9.8063049 -4.713613 4278190335
-16.206575 9.7963161 -4.713613 4278190335
-16.206575 9.7863274 -4.713613 4278190335
-16.206575 9.7763386 -4.713613 4278190335
-16.206575 9.7663498 -4.713613 4278190335
-16.206575 9.756361 -4.713613 4278190335
-16.206575 9.7463722 -4.713613 4278190335
-16.206575 9.7363834 -4.713613 4278190335
-16.206575 9.7263947 -4.713613 4278190335
-16.206575 9.7164059 -4.713613 4278190335
-16.206575 9.7064171 -4.713613 4278190335
-16.206575 9.6964283 -4.713613 4278190335
-16.206575 9.6864395 -4.713613 4278190335
-16.206575 9.6764507 -4.713613 4278190335
-16.206575 9.6664619 -4.713613 4278190335
-16.206575 9.6564732 -4.713613 4278190335
-16.206575 9.6464844 -4.713613 4278190335
-16.206575 9.6364956 -4.713613 4278190335
-16.206575 9.6265068 -4.713613 4278190335
-16.206575 9.616518 -4.713613 4278190335
-16.206575 9.6065292 -4.713613 4278190335
-16.206575 9.5965405 -4.713613 4278190335
-16.206575 9.5865517 -4.713613 4278190335
-16.206575 9.5765629 -4.713613 4278190335
-16.206575 9.5665741 -4.713613 4278190335
-16.206575 9.5565853 -4.713613 4278190335
-16.206575 9.5465965 -4.713613 4278190335
-16.206575 9.5366077 -4.713613 4278190335
-16.206575 9.526619 -4.713613 4278190335
-16.206575 9.5166302 -4.713613 4278190335
-16.206575 9.5066414 -4.713613 4278190335
-16.206575 9.4966526 -4.713613 4278190335
-16.206575 9.4866638 -4.713613 4278190335
-16.206575 9.476675 -4.713613 4278190335
-16.206575 9.4666862 -4.713613 4278190335
-16.206575 9.4566975 -4.713613 4278190335
-16.206575 9.4467087 -4.713613 4278190335
-16.206575 9.4367199 -4.713613 4278190335
-16.206575 9.4267311 -4.713613 4278190335
-16.206575 9.4167423 -4.713613 4278190335
-16.206575 9.4067535 -4.713613 4278190335
-16.206575 9.3967648 -4.713613 4278190335
-16.206575 9.386776 -4.713613 4278190335
-16.206575 9.3767872 -4.713613 4278190335
-16.206575 9.3667984 -4.713613 4278190335
-16.206575 9.3568096 -4.713613 4278190335
-16.206575 9.3468208 -4.713613 4278190335
-16.206575 9.336832 -4.713613 4278190335
-16.206575 9.3268433 -4.713613 4278190335
-16.206575 9.3168545 -4.713613 4278190335
-16.206575 9.3068657 -4.713613 4278190335
-16.206575 9.2968769 -4.713613 4278190335
-16.206575 9.2868881 -4.713613 4278190335
-16.206575 9.2768993 -4.713613 4278190335
-16.206575 9.2669106 -4.713613 4278190335
-16.206575 9.2569218 -4.713613 4278190335
-16.206575 9.246933 -4.713613 4278190335
-16.206575 9.2369442 -4.713613 4278190335
-16.206575 9.2269554 -4.713613 4278190335
-16.206575 9.2169666 -4.713613 4278190335
-16.206575 9.2069778 -4.713613 4278190335
-16.206575 9.1969891 -4.713613 4278190335
-16.206575 9.1870003 -4.713613 4278190335
-16.206575 9.1770115 -4.713613 4278190335
-16.206575 9.1670227 -4.713613 4278190335
-16.206575 9.1570339 -4.713613 4278190335
-16.206575 9.1470451 -4.713613 4278190335
-16.206575 9.1370564 -4.713613 4278190335
-16.206575 9.1270676 -4.713613 4278190335
-16.206575 9.1170788 -4.713613 4278190335
-16.206575 9.10709 -4.713613 4278190335
-16.206575 9.0971012 -4.713613 4278190335
-16.206575 9.0871124 -4.713613 4278190335
-16.206575 9.0771236 -4.713613 4278190335
-16.206575 9.0671349 -4.713613 4278190335
-16.206575 9.0571461 -4.713613 4278190335
-16.206575 9.0471563 -4.713613 4278190335
-16.206575 9.0371685 -4.713613 4278190335
-16.206575 9.0271797 -4.713613 4278190335
-16.206575 9.01719 -4.713613 4278190335
-16.206575 9.0072021 -4.713613 4278190335
-16.206575 8.9972124 -4.713613 4278190335
-16.206575 8.9872236 -4.713613 4278190335
-16.206575 8.9772358 -4.713613 4278190335
-16.206575 8.9672461 -4.713613 4278190335
-16.206575 8.9572573 -4.713613 4278190335
-16.206575 8.9472685 -4.713613 4278190335
-16.206575 8.9372797 -4.713613 4278190335
-16.206575 8.9272919 -4.713613 4278190335
-16.206575 8.9173021 -4.713613 4278190335
-16.206575 8.9073133 -4.713613 4278190335
-16.206575 8.8973246 -4.713613 4278190335
-16.206575 8.8873358 -4.713613 4278190335
-16.206575 8.877347 -4.713613 4278190335
-16.206575 8.8673582 -4.713613 4278190335
-16.206575 8.8573694 -4.713613 4278190335
-16.206575 8.8473806 -4.713613 4278190335
-16.206575 8.8373919 -4.713613 4278190335
-16.206575 8.8274031 -4.713613 4278190335
-16.206575 8.8174143 -4.713613 4278190335
-16.206575 8.8074255 -4.713613 4278190335
-16.206575 8.7974367 -4.713613 4278190335
-16.206575 8.7874479 -4.713613 4278190335
-16.206575 8.7774591 -4.713613 4278190335
-16.206575 8.7674704 -4.713613 4278190335
-16.206575 8.7574816 -4.713613 4278190335
-16.206575 8.7474928 -4.713613 4278190335
-16.206575 8.737504 -4.713613 4278190335
-16.206575 8.7275152 -4.713613 4278190335
-16.206575 8.7175264 -4.713613 4278190335
-16.206575 8.7075377 -4.713613 4278190335
-16.206575 8.6975489 -4.713613 4278190335
-16.206575 8.6875601 -4.713613 4278190335
-16.206575 8.6775713 -4.713613 4278190335
-16.206575 8.6675825 -4.713613 4278190335
-16.206575 8.6575937 -4.713613 4278190335
-16.206575 8.6476049 -4.713613 4278190335
-16.206575 8.6376162 -4.713613 4278190335
-16.206575 8.6276274 -4.713613 4278190335
-16.206575 8.6176386 -4.713613 4278190335
-16.206575 8.6076498 -4.713613 4278190335
-16.206575 8.597661 -4.713613 4278190335
-16.206575 8.5876722 -4.713613 4278190335
-16.206575 8.5776834 -4.713613 4278190335
-16.206575 8.5676947 -4.713613 4278190335
-16.206575 8.5577059 -4.713613 4278190335
-16.206575 8.5477171 -4.713613 4278190335
-16.206575 8.5377283 -4.713613 4278190335
-16.206575 8.5277395 -4.713613 4278190335
-16.206575 8.5177507 -4.713613 4278190335
-16.206575 8.507762 -4.713613 4278190335
-16.206575 8.4977732 -4.713613 4278190335
-16.206575 8.4877844 -4.713613 4278190335
-16.206575 8.4777956 -4.713613 4278190335
-16.206575 8.4678068 -4.713613 4278190335
-16.206575 8.457818 -4.713613 4278190335
-16.206575 8.4478292 -4.713613 4278190335
-16.206575 8.4378405 -4.713613 4278190335
-16.206575 8.4278517 -4.713613 4278190335
-16.206575 8.4178629 -4.713613 4278190335
-16.206575 8.4078741 -4.713613 4278190335
-16.206575 8.3978853 -4.713613 4278190335
-16.206575 8.3878965 -4.713613 4278190335
-16.206575 8.3779078 -4.713613 4278190335
-16.206575 8.367919 -4.713613 4278190335
-16.206575 8.3579302 -4.713613 4278190335
-16.206575 8.3479414 -4.713613 4278190335
-16.206575 8.3379526 -4.713613 4278190335
-16.206575 8.3279638 -4.713613 4278190335
-16.206575 8.317975 -4.713613 4278190335
-16.206575 8.3079863 -4.713613 4278190335
-16.206575 8.2979975 -4.713613 4278190335
-16.206575 8.2880087 -4.713613 4278190335
-16.206575 8.2780199 -4.713613 4278190335
-16.206575 8.2680311 -4.713613 4278190335
-16.206575 8.2580423 -4.713613 4278190335
-16.206575 8.2480536 -4.713613 4278190335
-16.206575 8.2380648 -4.713613 4278190335
-16.206575 8.228076 -4.713613 4278190335
-16.206575 8.2180872 -4.713613 4278190335
-16.206575 8.2080984 -4.713613 4278190335
-16.206575 8.1981096 -4.713613 4278190335
-16.206575 8.1881208 -4.713613 4278190335
-16.206575 8.1781321 -4.713613 4278190335
-16.206575 8.1681433 -4.713613 4278190335
-16.206575 8.1581545 -4.713613 4278190335
-16.206575 8.1481657 -4.713613 4278190335
-16.206575 8.1381769 -4.713613 4278190335
-16.206575 8.1281881 -4.713613 4278190335
-16.206575 8.1181993 -4.713613 4278190335
-16.206575 8.1082106 -4.713613 4278190335
-16.206575 8.0982218 -4.713613 4278190335
-16.206575 8.088233 -4.713613 4278190335
-16.206575 8.0782442 -4.713613 4278190335
-16.206575 8.0682554 -4.713613 4278190335
-16.206575 8.0582666 -4.713613 4278190335
-16.206575 8.0482779 -4.713613 4278190335
-16.206575 8.0382891 -4.713613 4278190335
-16.206575 8.0283003 -4.713613 4278190335
-16.206575 8.0183115 -4.713613 4278190335
-16.206575 8.0083227 -4.713613 4278190335
-16.206575 7.9983339 -4.713613 4278190335
-16.206575 7.9883451 -4.713613 4278190335
-16.206575 7.9783564 -4.713613 4278190335
-16.206575 7.9683676 -4.713613 4278190335
-16.206575 7.9583788 -4.713613 4278190335
-16.206575 7.94839 -4.713613 4278190335
-16.206575 7.9384012 -4.713613 4278190335
-16.206575 7.9284124 -4.713613 4278190335
-16.206575 7.9184237 -4.713613 4278190335
-16.206575 7.9084349 -4.713613 4278190335
-16.206575 7.8984461 -4.713613 4278190335
-16.206575 7.8884573 -4.713613 4278190335
-16.206575 7.8784685 -4.713613 4278190335
-16.206575 7.8684797 -4.713613 4278190335
-16.206575 7.8584909 -4.713613 4278190335
-16.206575 7.8485022 -4.713613 4278190335
-16.206575 7.8385134 -4.713613 4278190335
-16.206575 7.8285246 -4.713613 4278190335
-16.206575 7.8185358 -4.713613 4278190335
-16.206575 7.808547 -4.713613 4278190335
-16.206575 7.7985582 -4.713613 4278190335
-16.206575 7.7885695 -4.713613 4278190335
-16.206575 7.7785807 -4.713613 4278190335
-16.206575 7.7685919 -4.713613 4278190335
-16.206575 7.7586031 -4.713613 4278190335
-16.206575 7.7486143 -4.713613 4278190335
-16.206575 7.7386255 -4.713613 4278190335
-16.206575 7.7286367 -4.713613 4278190335
-16.206575 7.718648 -4.713613 4278190335
-16.206575 7.7086592 -4.713613 4278190335
-16.206575 7.6986704 -4.713613 4278190335
-16.206575 7.6886816 -4.713613 4278190335
-16.206575 7.6786928 -4.713613 4278190335
-16.206575 7.668704 -4.713613 4278190335
-16.206575 7.6587152 -4.713613 4278190335
-16.206575 7.6487265 -4.713613 4278190335
-16.206575 7.6387377 -4.713613 4278190335
-16.206575 7.6287489 -4.713613 4278190335
-16.206575 7.6187601 -4.713613 4278190335
-16.206575 7.6087708 -4.713613 4278190335
-16.206575 7.5987825 -4.713613 4278190335
-16.206575 7.5887938 -4.713613 4278190335
-16.206575 7.5788045 -4.713613 4278190335
-16.206575 7.5688162 -4.713613 4278190335
-16.206575 7.5588274 -4.713613 4278190335
-16.206575 7.5488381 -4.713613 4278190335
-16.206575 7.5388498 -4.713613 4278190335
-16.206575 7.528861 -4.713613 4278190335
-16.206575 7.5188718 -4.713613 4278190335
-16.206575 7.5088835 -4.713613 4278190335
-16.206575 7.4988947 -4.713613 4278190335
-16.206575 7.4889054 -4.713613 4278190335
-16.206575 7.4789166 -4.713613 4278190335
-16.206575 7.4689279 -4.713613 4278190335
-16.206575 7.4589391 -4.713613 4278190335
-16.206575 7.4489503 -4.713613 4278190335
-16.206575 7.4389615 -4.713613 4278190335
-16.206575 7.4289727 -4.713613 4278190335
-16.206575 7.4189839 -4.713613 4278190335
-16.206575 7.4089952 -4.713613 4278190335
-16.206575 7.3990064 -4.713613 4278190335
-16.206575 7.3890176 -4.713613 4278190335
-16.206575 7.3790288 -4.713613 4278190335
-16.206575 7.36904 -4.713613 4278190335
-16.206575 7.3590512 -4.713613 4278190335
-16.206575 7.3490624 -4.713613 4278190335
-16.206575 7.3390737 -4.713613 4278190335
-16.206575 7.3290849 -4.713613 4278190335
-16.206575 7.3290849 -4.8590689 4278190335
-16.206575 7.3290849 -4.8493719 4278190335
-16.206575 7.3290849 -4.8396749 4278190335
-16.206575 7.3290849 -4.8299775 4278190335
-16.206575 7.3290849 -4.8202806 4278190335
-16.206575 7.3290849 -4.8105836 4278190335
-16.206575 7.3290849 -4.8008866 4278190335
-16.206575 7.3290849 -4.7911897 4278190335
-16.206575 7.3290849 -4.7814922 4278190335
-16.206575 7.3290849 -4.7717953 4278190335
-16.206575 7.3290849 -4.7620983 4278190335
-16.206575 7.3290849 -4.7524014 4278190335
-16.206575 7.3290849 -4.7427044 4278190335
-16.206575 7.3290849 -4.733007 4278190335
-16.206575 7.3290849 -4.72331 4278190335
-16.206575 7.3290849 -4.713613 4278190335
-15.109043 7.3290849 -4.8590689 4278190335
-15.109043 7.3290849 -4.8493719 4278190335
-15.109043 7.3290849 -4.8396749 4278190335
-15.109043 7.3290849 -4.8299775 4278190335
-15.109043 7.3290849 -4.8202806 4278190335
-15.109043 7.3290849 -4.8105836 4278190335
-15.109043 7.3290849 -4.8008866 4278190335
-15.109043 7.3290849 -4.7911897 4278190335
-15.109043 7.3290849 -4.7814922 4278190335
-15.109043 7.3290849 -4.7717953 4278190335
-15.109043 7.3290849 -4.7620983 4278190335
-15.109043 7.3290849 -4.7524014 4278190335
-15.109043 7.3290849 -4.7427044 4278190335
-15.109043 7.3290849 -4.733007 4278190335
-15.109043 7.3290849 -4.72331 4278190335
-15.109043 7.3290849 -4.713613 4278190335
-16.206575 9.9561367 -4.8590689 4278190335
-16.206575 9.9561367 -4.8493719 4278190335
-16.206575 9.9561367 -4.8396749 4278190335
-16.206575 9.9561367 -4.8299775 4278190335
-16.206575 9.9561367 -4.8202806 4278190335
-16.206575 9.9561367 -4.8105836 4278190335
-16.206575 9.9561367 -4.8008866 4278190335
-16.206575 9.9561367 -4.7911897 4278190335
-16.206575 9.9561367 -4.7814922 4278190335
-16.206575 9.9561367 -4.7717953 4278190335
-16.206575 9.9561367 -4.7620983 4278190335
-16.206575 9.9561367 -4.7524014 4278190335
-16.206575 9.9561367 -4.7427044 4278190335
-16.206575 9.9561367 -4.733007 4278190335
-16.206575 9.9561367 -4.72331 4278190335
-16.206575 9.9561367 -4.713613 4278190335
-15.109043 9.9561367 -4.8590689 4278190335
-15.109043 9.9561367 -4.8493719 4278190335
-15.109043 9.9561367 -4.8396749 4278190335
-15.109043 9.9561367 -4.8299775 4278190335
-15.109043 9.9561367 -4.8202806 4278190335
-15.109043 9.9561367 -4.8105836 4278190335
-15.109043 9.9561367 -4.8008866 4278190335
-15.109043 9.9561367 -4.7911897 4278190335
-15.109043 9.9561367 -4.7814922 4278190335
-15.109043 9.9561367 -4.7717953 4278190335
-15.109043 9.9561367 -4.7620983 4278190335
-15.109043 9.9561367 -4.7524014 4278190335
-15.109043 9.9561367 -4.7427044 4278190335
-15.109043 9.9561367 -4.733007 4278190335
-15.109043 9.9561367 -4.72331 4278190335
-15.109043 9.9561367 -4.713613 4278190335
-14.18436 9.3884249 -4.5578036 4288657511
-14.167576 9.448596 -4.5629802 4288657511
-14.113661 9.4839849 -4.5562506 4288657511
-14.072534 9.5242395 -4.5531449 4288657511
-14.071123 9.5950718 -4.5634975 4288657511
-14.045507 9.6495972 -4.5660858 4288657511
-13.999029 9.6897745 -4.561945 4288657511
-13.915999 9.7043257 -4.545898 4288657511
-13.874136 9.7472868 -4.5433097 4288657511
-13.840159 9.7921257 -4.5427918 4288657511
-13.711506 9.7731018 -4.511734 4288657511
-13.722775 9.9263287 -4.5381331 4288657511
-13.683535 9.9672308 -4.5360627 4288657511
-13.660926 10.027608 -4.5407214 4288657511
-13.599433 10.055704 -4.5319214 4288657511
-14.18436 9.3884249 -4.5660858 4278190335
-14.174445 9.3884249 -4.5660858 4278190335
-14.164532 9.3884249 -4.5660858 4278190335
-14.154617 9.3884249 -4.5660858 4278190335
-14.144704 9.3884249 -4.5660858 4278190335
-14.134789 9.3884249 -4.5660858 4278190335
-14.124875 9.3884249 -4.5660858 4278190335
-14.114962 9.3884249 -4.5660858 4278190335
-14.105047 9.3884249 -4.5660858 4278190335
-14.095134 9.3884249 -4.5660858 4278190335
-14.085219 9.3884249 -4.5660858 4278190335
-14.075305 9.3884249 -4.5660858 4278190335
-14.065392 9.3884249 -4.5660858 4278190335
-14.055477 9.3884249 -4.5660858 4278190335
-14.045564 9.3884249 -4.5660858 4278190335
-14.035649 9.3884249 -4.5660858 4278190335
-14.025736 9.3884249 -4.5660858 4278190335
-14.015821 9.3884249 -4.5660858 4278190335
-14.005907 9.3884249 -4.5660858 4278190335
-13.995994 9.3884249 -4.5660858 4278190335
-13.986079 9.3884249 -4.5660858 4278190335
-13.976166 9.3884249 -4.5660858 4278190335
-13.966251 9.3884249 -4.5660858 4278190335
-13.956337 9.3884249 -4.5660858 4278190335
-13.946424 9.3884249 -4.5660858 4278190335
-13.936509 9.3884249 -4.5660858 4278190335
-13.926596 9.3884249 -4.5660858 4278190335
-13.916681 9.3884249 -4.5660858 4278190335
-13.906767 9.3884249 -4.5660858 4278190335
-13.896853 9.3884249 -4.5660858 4278190335
-13.886939 9.3884249 -4.5660858 4278190335
-13.877026 9.3884249 -4.5660858 4278190335
-13.867111 9.3884249 -4.5660858 4278190335
-13.857197 9.3884249 -4.5660858 4278190335
-13.847283 9.3884249 -4.5660858 4278190335
-13.837369 9.3884249 -4.5660858 4278190335
-13.827456 9.3884249 -4.5660858 4278190335
-13.817541 9.3884249 -4.5660858 4278190335
-13.807627 9.3884249 -4.5660858 4278190335
-13.797713 9.3884249 -4.5660858 4278190335
-13.787799 9.3884249 -4.5660858 4278190335
-13.777885 9.3884249 -4.5660858 4278190335
-13.767971 9.3884249 -4.5660858 4278190335
-13.758057 9.3884249 -4.5660858 4278190335
-13.748143 9.3884249 -4.5660858 4278190335
-13.738229 9.3884249 -4.5660858 4278190335
-13.728315 9.3884249 -4.5660858 4278190335
-13.718401 9.3884249 -4.5660858 4278190335
-13.708488 9.3884249 -4.5660858 4278190335
-13.698573 9.3884249 -4.5660858 4278190335
-13.688659 9.3884249 -4.5660858 4278190335
-13.678745 9.3884249 -4.5660858 4278190335
-13.668831 9.3884249 -4.5660858 4278190335
-13.658917 9.3884249 -4.5660858 4278190335
-13.649003 9.3884249 -4.5660858 4278190335
-13.639089 9.3884249 -4.5660858 4278190335
-13.629175 9.3884249 -4.5660858 4278190335
-13.619261 9.3884249 -4.5660858 4278190335
-13.609347 9.3884249 -4.5660858 4278190335
-13.599433 9.3884249 -4.5660858 4278190335
-13.599433 9.3884249 -4.5660858 4278190335
-13.599433 9.3983841 -4.5660858 4278190335
-13.599433 9.4083433 -4.5660858 4278190335
-13.599433 9.4183035 -4.5660858 4278190335
-13.599433 9.4282627 -4.5660858 4278190335
-13.599433 9.4382219 -4.5660858 4278190335
-13.599433 9.4481812 -4.5660858 4278190335
-13.599433 9.4581404 -4.5660858 4278190335
-13.599433 9.4680996 -4.5660858 4278190335
-13.599433 9.4780598 -4.5660858 4278190335
-13.599433 9.488019 -4.5660858 4278190335
-13.599433 9.4979782 -4.5660858 4278190335
-13.599433 9.5079374 -4.5660858 4278190335
-13.599433 9.5178967 -4.5660858 4278190335
-13.599433 9.5278568 -4.5660858 4278190335
-13.599433 9.537816 -4.5660858 4278190335
-13.599433 9.5477753 -4.5660858 4278190335
-13.599433 9.5577345 -4.5660858 4278190335
-13.599433 9.5676937 -4.5660858 4278190335
-13.599433 9.5776529 -4.5660858 4278190335
-13.599433 9.5876131 -4.5660858 4278190335
-13.599433 9.5975723 -4.5660858 4278190335
-13.599433 9.6075315 -4.5660858 4278190335
-13.599433 9.6174908 -4.5660858 4278190335
-13.599433 9.62745 -4.5660858 4278190335
-13.599433 9.6374092 -4.5660858 4278190335
-13.599433 9.6473694 -4.5660858 4278190335
-13.599433 9.6573286 -4.5660858 4278190335
-13.599433 9.6672878 -4.5660858 4278190335
-13.599433 9.677247 -4.5660858 4278190335
-13.599433 9.6872063 -4.5660858 4278190335
-13.599433 9.6971664 -4.5660858 4278190335
-13.599433 9.7071257 -4.5660858 4278190335
-13.599433 9.7170849 -4.5660858 4278190335
-13.599433 9.7270441 -4.5660858 4278190335
-13.599433 9.7370033 -4.5660858 4278190335
-13.599433 9.7469625 -4.5660858 4278190335
-13.599433 9.7569227 -4.5660858 4278190335
-13.599433 9.7668819 -4.5660858 4278190335
-13.599433 9.7768412 -4.5660858 4278190335
-13.599433 9.7868004 -4.5660858 4278190335
-13.599433 9.7967596 -4.5660858 4278190335
-13.599433 9.8067198 -4.5660858 4278190335
-13.599433 9.816679 -4.5660858 4278190335
-13.599433 9.8266382 -4.5660858 4278190335
-13.599433 9.8365974 -4.5660858 4278190335
-13.599433 9.8465567 -4.5660858 4278190335
-13.599433 9.8565159 -4.5660858 4278190335
-13.599433 9.8664761 -4.5660858 4278190335
-13.599433 9.8764353 -4.5660858 4278190335
-13.599433 9.8863945 -4.5660858 4278190335
-13.599433 9.8963537 -4.5660858 4278190335
-13.599433 9.9063129 -4.5660858 4278190335
-13.599433 9.9162731 -4.5660858 4278190335
-13.599433 9.9262323 -4.5660858 4278190335
-13.599433 9.9361916 -4.5660858 4278190335
-13.599433 9.9461508 -4.5660858 4278190335
-13.599433 9.95611 -4.5660858 4278190335
-13.599433 9.9660692 -4.5660858 4278190335
-13.599433 9.9760294 -4.5660858 4278190335
-13.599433 9.9859886 -4.5660858 4278190335
-13.599433 9.9959478 -4.5660858 4278190335
-13.599433 10.005907 -4.5660858 4278190335
-13.599433 10.015866 -4.5660858 4278190335
-13.599433 10.025826 -4.5660858 4278190335
-13.599433 10.035786 -4.5660858 4278190335
-13.599433 10.045745 -4.5660858 4278190335
-13.599433 10.055704 -4.5660858 4278190335
-13.599433 10.055704 -4.5660858 4278190335
-13.609347 10.055704 -4.5660858 4278190335
-13.619261 10.055704 -4.5660858 4278190335
-13.629175 10.055704 -4.5660858 4278190335
-13.639089 10.055704 -4.5660858 4278190335
-13.649003 10.055704 -4.5660858 4278190335
-13.658917 10.055704 -4.5660858 4278190335
-13.668831 10.055704 -4.5660858 4278190335
-13.678745 10.055704 -4.5660858 4278190335
-13.688659 10.055704 -4.5660858 4278190335
-13.698573 10.055704 -4.5660858 4278190335
-13.708488 10.055704 -4.5660858 4278190335
-13.718401 10.055704 -4.5660858 4278190335
-13.728315 10.055704 -4.5660858 4278190335
-13.738229 10.055704 -4.5660858 4278190335
-13.748143 10.055704 -4.5660858 4278190335
-13.758057 10.055704 -4.5660858 4278190335
-13.767971 10.055704 -4.5660858 4278190335
-13.777885 10.055704 -4.5660858 4278190335
-13.787799 10.055704 -4.5660858 4278190335
-13.797713 10.055704 -4.5660858 4278190335
-13.807627 10.055704 -4.5660858 4278190335
-13.817541 10.055704 -4.5660858 4278190335
-13.827456 10.055704 -4.5660858 4278190335
-13.837369 10.055704 -4.5660858 4278190335
-13.847283 10.055704 -4.5660858 4278190335
-13.857197 10.055704 -4.5660858 4278190335
-13.867111 10.055704 -4.5660858 4278190335
-13.877026 10.055704 -4.5660858 4278190335
-13.886939 10.055704 -4.5660858 4278190335
-13.896853 10.055704 -4.5660858 4278190335
-13.906767 10.055704 -4.5660858 4278190335
-13.916681 10.055704 -4.5660858 4278190335
-13.926596 10.055704 -4.5660858 4278190335
-13.936509 10.055704 -4.5660858 4278190335
-13.946424 10.055704 -4.5660858 4278190335
-13.956337 10.055704 -4.5660858 4278190335
-13.966251 10.055704 -4.5660858 4278190335
-13.976166 10.055704 -4.5660858 4278190335
-13.986079 10.055704 -4.5660858 4278190335
-13.995994 10.055704 -4.5660858 4278190335
-14.005907 10.055704 -4.5660858 4278190335
-14.015821 10.055704 -4.5660858 4278190335
-14.025736 10.055704 -4.5660858 4278190335
-14.035649 10.055704 -4.5660858 4278190335
-14.045564 10.055704 -4.5660858 4278190335
-14.055477 10.055704 -4.5660858 4278190335
-14.065392 10.055704 -4.5660858 4278190335
-14.075305 10.055704 -4.5660858 4278190335
-14.085219 10.055704 -4.5660858 4278190335
-14.095134 10.055704 -4.5660858 4278190335
-14.105047 10.055704 -4.5660858 4278190335
-14.114962 10.055704 -4.5660858 4278190335
-14.124875 10.055704 -4.5660858 4278190335
-14.134789 10.055704 -4.5660858 4278190335
-14.144704 10.055704 -4.5660858 4278190335
-14.154617 10.055704 -4.5660858 4278190335
-14.164532 10.055704 -4.5660858 4278190335
-14.174445 10.055704 -4.5660858 4278190335
-14.18436 10.055704 -4.5660858 4278190335
-14.18436 10.055704 -4.5660858 4278190335
-14.18436 10.045745 -4.5660858 4278190335
-14.18436 10.035786 -4.5660858 4278190335
-14.18436 10.025826 -4.5660858 4278190335
-14.18436 10.015866 -4.5660858 4278190335
-14.18436 10.005907 -4.5660858 4278190335
-14.18436 9.9959478 -4.5660858 4278190335
-14.18436 9.9859886 -4.5660858 4278190335
-14.18436 9.9760294 -4.5660858 4278190335
-14.18436 9.9660692 -4.5660858 4278190335
-14.18436 9.95611 -4.5660858 4278190335
-14.18436 9.9461508 -4.5660858 4278190335
-14.18436 9.9361916 -4.5660858 4278190335
-14.18436 9.9262323 -4.5660858 4278190335
-14.18436 9.9162722 -4.5660858 4278190335
-14.18436 9.9063129 -4.5660858 4278190335
-14.18436 9.8963537 -4.5660858 4278190335
-14.18436 9.8863945 -4.5660858 4278190335
-14.18436 9.8764353 -4.5660858 4278190335
-14.18436 9.8664761 -4.5660858 4278190335
-14.18436 9.8565159 -4.5660858 4278190335
-14.18436 9.8465567 -4.5660858 4278190335
-14.18436 9.8365974 -4.5660858 4278190335
-14.18436 9.8266382 -4.5660858 4278190335
-14.18436 9.816679 -4.5660858 4278190335
-14.18436 9.8067198 -4.5660858 4278190335
-14.18436 9.7967596 -4.5660858 4278190335
-14.18436 9.7868004 -4.5660858 4278190335
-14.18436 9.7768412 -4.5660858 4278190335
-14.18436 9.7668819 -4.5660858 4278190335
-14.18436 9.7569227 -4.5660858 4278190335
-14.18436 9.7469625 -4.5660858 4278190335
-14.18436 9.7370033 -4.5660858 4278190335
-14.18436 9.7270441 -4.5660858 4278190335
-14.18436 9.7170849 -4.5660858 4278190335
-14.18436 9.7071257 -4.5660858 4278190335
-14.18436 9.6971664 -4.5660858 4278190335
-14.18436 9.6872063 -4.5660858 4278190335
-14.18436 9.677247 -4.5660858 4278190335
-14.18436 9.6672878 -4.5660858 4278190335
-14.18436 9.6573286 -4.5660858 4278190335
-14.18436 9.6473694 -4.5660858 4278190335
-14.18436 9.6374092 -4.5660858 4278190335
-14.18436 9.62745 -4.5660858 4278190335
-14.18436 9.6174908 -4.5660858 4278190335
-14.18436 9.6075315 -4.5660858 4278190335
-14.18436 9.5975723 -4.5660858 4278190335
-14.18436 9.5876131 -4.5660858 4278190335
-14.18436 9.5776529 -4.5660858 4278190335
-14.18436 9.5676937 -4.5660858 4278190335
-14.18436 9.5577345 -4.5660858 4278190335
-14.18436 9.5477753 -4.5660858 4278190335
-14.18436 9.537816 -4.5660858 4278190335
-14.18436 9.5278568 -4.5660858 4278190335
-14.18436 9.5178967 -4.5660858 4278190335
-14.18436 9.5079374 -4.5660858 4278190335
-14.18436 9.4979782 -4.5660858 4278190335
-14.18436 9.488019 -4.5660858 4278190335
-14.18436 9.4780598 -4.5660858 4278190335
-14.18436 9.4680996 -4.5660858 4278190335
-14.18436 9.4581404 -4.5660858 4278190335
-14.18436 9.4481812 -4.5660858 4278190335
-14.18436 9.4382219 -4.5660858 4278190335
-14.18436 9.4282627 -4.5660858 4278190335
-14.18436 9.4183035 -4.5660858 4278190335
-14.18436 9.4083433 -4.5660858 4278190335
-14.18436 9.3983841 -4.5660858 4278190335
-14.18436 9.3884249 -4.5660858 4278190335
-14.18436 9.3884249 -4.511734 4278190335
-14.174445 9.3884249 -4.511734 4278190335
-14.164532 9.3884249 -4.511734 4278190335
-14.154617 9.3884249 -4.511734 4278190335
-14.144704 9.3884249 -4.511734 4278190335
-14.134789 9.3884249 -4.511734 4278190335
-14.124875 9.3884249 -4.511734 4278190335
-14.114962 9.3884249 -4.511734 4278190335
-14.105047 9.3884249 -4.511734 4278190335
-14.095134 9.3884249 -4.511734 4278190335
-14.085219 9.3884249 -4.511734 4278190335
-14.075305 9.3884249 -4.511734 4278190335
-14.065392 9.3884249 -4.511734 4278190335
-14.055477 9.3884249 -4.511734 4278190335
-14.045564 9.3884249 -4.511734 4278190335
-14.035649 9.3884249 -4.511734 4278190335
-14.025736 9.3884249 -4.511734 4278190335
-14.015821 9.3884249 -4.511734 4278190335
-14.005907 9.3884249 -4.511734 4278190335
-13.995994 9.3884249 -4.511734 4278190335
-13.986079 9.3884249 -4.511734 4278190335
-13.976166 9.3884249 -4.511734 4278190335
-13.966251 9.3884249 -4.511734 4278190335
-13.956337 9.3884249 -4.511734 4278190335
-13.946424 9.3884249 -4.511734 4278190335
-13.936509 9.3884249 -4.511734 4278190335
-13.926596 9.3884249 -4.511734 4278190335
-13.916681 9.3884249 -4.511734 4278190335
-13.906767 9.3884249 -4.511734 4278190335
-13.896853 9.3884249 -4.511734 4278190335
-13.886939 9.3884249 -4.511734 4278190335
-13.877026 9.3884249 -4.511734 4278190335
-13.867111 9.3884249 -4.511734 4278190335
-13.857197 9.3884249 -4.511734 4278190335
-13.847283 9.3884249 -4.511734 4278190335
-13.837369 9.3884249 -4.511734 4278190335
-13.827456 9.3884249 -4.511734 4278190335
-13.817541 9.3884249 -4.511734 4278190335
-13.807627 9.3884249 -4.511734 4278190335
-13.797713 9.3884249 -4.511734 4278190335
-13.787799 9.3884249 -4.511734 4278190335
-13.777885 9.3884249 -4.511734 4278190335
-13.767971 9.3884249 -4.511734 4278190335
-13.758057 9.3884249 -4.511734 4278190335
-13.748143 9.3884249 -4.511734 4278190335
-13.738229 9.3884249 -4.511734 4278190335
-13.728315 9.3884249 -4.511734 4278190335
-13.718401 9.3884249 -4.511734 4278190335
-13.708488 9.3884249 -4.511734 4278190335
-13.698573 9.3884249 -4.511734 4278190335
-13.688659 9.3884249 -4.511734 4278190335
-13.678745 9.3884249 -4.511734 4278190335
-13.668831 9.3884249 -4.511734 4278190335
-13.658917 9.3884249 -4.511734 4278190335
-13.649003 9.3884249 -4.511734 4278190335
-13.639089 9.3884249 -4.511734 4278190335
-13.629175 9.3884249 -4.511734 4278190335
-13.619261 9.3884249 -4.511734 4278190335
-13.609347 9.3884249 -4.511734 4278190335
-13.599433 9.3884249 -4.511734 4278190335
-13.599433 9.3884249 -4.511734 4278190335
-13.599433 9.3983841 -4.511734 4278190335
-13.599433 9.4083433 -4.511734 4278190335
-13.599433 9.4183035 -4.511734 4278190335
-13.599433 9.4282627 -4.511734 4278190335
-13.599433 9.4382219 -4.511734 4278190335
-13.599433 9.4481812 -4.511734 4278190335
-13.599433 9.4581404 -4.511734 4278190335
-13.599433 9.4680996 -4.511734 4278190335
-13.599433 9.4780598 -4.511734 4278190335
-13.599433 9.488019 -4.511734 4278190335
-13.599433 9.4979782 -4.511734 4278190335
-13.599433 9.5079374 -4.511734 4278190335
-13.599433 9.5178967 -4.511734 4278190335
-13.599433 9.5278568 -4.511734 4278190335
-13.599433 9.537816 -4.511734 4278190335
-13.599433 9.5477753 -4.511734 4278190335
-13.599433 9.5577345 -4.511734 4278190335
-13.599433 9.5676937 -4.511734 4278190335
-13.599433 9.5776529 -4.511734 4278190335
-13.599433 9.5876131 -4.511734 4278190335
-13.599433 9.5975723 -4.511734 4278190335
-13.599433 9.6075315 -4.511734 4278190335
-13.599433 9.6174908 -4.511734 4278190335
-13.599433 9.62745 -4.511734 4278190335
-13.599433 9.6374092 -4.511734 4278190335
-13.599433 9.6473694 -4.511734 4278190335
-13.599433 9.6573286 -4.511734 4278190335
-13.599433 9.6672878 -4.511734 4278190335
-13.599433 9.677247 -4.511734 4278190335
-13.599433 9.6872063 -4.511734 4278190335
-13.599433 9.6971664 -4.511734 4278190335
-13.599433 9.7071257 -4.511734 4278190335
-13.599433 9.7170849 -4.511734 4278190335
-13.599433 9.7270441 -4.511734 4278190335
-13.599433 9.7370033 -4.511734 4278190335
-13.599433 9.7469625 -4.511734 4278190335
-13.599433 9.7569227 -4.511734 4278190335
-13.599433 9.7668819 -4.511734 4278190335
-13.599433 9.7768412 -4.511734 4278190335
-13.599433 9.7868004 -4.511734 4278190335
-13.599433 9.7967596 -4.511734 4278190335
-13.599433 9.8067198 -4.511734 4278190335
-13.599433 9.816679 -4.511734 4278190335
-13.599433 9.8266382 -4.511734 4278190335
-13.599433 9.8365974 -4.511734 4278190335
