# .PCD v0.7 - Point Cloud Data file format
VERSION 0.7
FIELDS x y z intensity
SIZE 4 4 4 4
TYPE F F F F
COUNT 1 1 1 1
WIDTH 150
HEIGHT 1
VIEWPOINT 0 0 0 1 0 0 0
POINTS 150
DATA ascii
2.262316 -0.78234065 -0.29415616 100
2.2606943 -0.77463412 -0.2969864 100
2.2590725 -0.7669276 -0.29981667 100
2.2574508 -0.75922108 -0.30264691 100
2.2558293 -0.75151455 -0.30547717 100
2.2542076 -0.74380803 -0.30830741 100
2.2525859 -0.73610151 -0.31113768 100
2.2509642 -0.72839504 -0.31396791 100
2.2493427 -0.72068852 -0.31679818 100
2.247721 -0.712982 -0.31962842 100
2.2460992 -0.70527548 -0.32245868 100
2.2444777 -0.69756895 -0.32528892 100
2.242856 -0.68986243 -0.32811919 100
2.2412343 -0.68215597 -0.33094943 100
2.2396126 -0.67444944 -0.33377969 100
2.2379911 -0.66674292 -0.33660993 100
2.2363694 -0.6590364 -0.3394402 100
2.2347476 -0.65132987 -0.34227043 100
2.2331259 -0.64362335 -0.3451007 100
2.2315044 -0.63591683 -0.34793097 100
2.2298827 -0.62821031 -0.3507612 100
2.228261 -0.62050378 -0.35359147 100
2.2266395 -0.61279726 -0.35642171 100
2.2250178 -0.60509074 -0.35925198 100
2.2233961 -0.59738421 -0.36208221 100
2.2217743 -0.58967769 -0.36491248 100
2.2201529 -0.58197123 -0.36774272 100
2.2185311 -0.57426471 -0.37057298 100
2.2169094 -0.56655818 -0.37340322 100
2.2152877 -0.55885172 -0.37623349 100
2.2136662 -0.5511452 -0.37906373 100
2.2120445 -0.54343867 -0.38189396 100
2.2104228 -0.53573215 -0.38472423 100
2.2088013 -0.52802569 -0.38755447 100
2.2071795 -0.52031916 -0.39038473 100
2.2055578 -0.51261264 -0.39321497 100
2.2039361 -0.50490612 -0.39604521 100
2.2023146 -0.49719962 -0.39887547 100
2.2006929 -0.48949313 -0.40170571 100
2.1990712 -0.48178661 -0.40453598 100
2.1974494 -0.47408012 -0.40736622 100
2.195828 -0.46637359 -0.41019648 100
2.1942062 -0.4586671 -0.41302672 100
2.1925845 -0.45096058 -0.41585696 100
2.190963 -0.44325408 -0.41868722 100
2.1893413 -0.43554759 -0.42151746 100
2.1877196 -0.42784107 -0.42434773 100
2.1860979 -0.42013457 -0.42717797 100
2.1844764 -0.41242805 -0.4300082 100
2.1828547 -0.40472156 -0.43283847 100
1.8623271 -1.0400308 -0.47743818 100
1.8693405 -1.037273 -0.47380462 100
1.876354 -1.0345153 -0.47017103 100
1.8833674 -1.0317575 -0.46653745 100
1.8903809 -1.0289997 -0.46290386 100
1.8973943 -1.0262419 -0.4592703 100
1.9044077 -1.0234841 -0.45563671 100
1.9114213 -1.0207262 -0.45200312 100
1.9184347 -1.0179684 -0.44836953 100
1.9254482 -1.0152106 -0.44473597 100
1.9324616 -1.0124528 -0.44110239 100
1.9394751 -1.0096951 -0.4374688 100
1.9464885 -1.0069373 -0.43383521 100
1.9535019 -1.0041795 -0.43020165 100
1.9605154 -1.0014217 -0.42656806 100
1.9675288 -0.99866384 -0.42293447 100
1.9745423 -0.99590605 -0.41930088 100
1.9815557 -0.99314827 -0.4156673 100
1.9885691 -0.99039042 -0.41203374 100
1.9955826 -0.98763263 -0.40840015 100
2.0025961 -0.98487484 -0.40476656 100
2.0096095 -0.98211706 -0.40113297 100
2.016623 -0.97935921 -0.39749938 100
2.0236363 -0.97660142 -0.39386579 100
2.0306499 -0.97384363 -0.39023224 100
2.0376632 -0.97108585 -0.38659865 100
2.0446768 -0.968328 -0.38296506 100
2.0516901 -0.96557021 -0.3793315 100
2.0587037 -0.96281242 -0.37569791 100
2.065717 -0.96005464 -0.37206432 100
2.0727305 -0.95729685 -0.36843076 100
2.0797439 -0.954539 -0.36479717 100
2.0867574 -0.95178121 -0.36116359 100
2.0937707 -0.94902343 -0.35753003 100
2.1007843 -0.94626564 -0.35389644 100
2.1077976 -0.94350785 -0.35026285 100
2.1148112 -0.94075006 -0.34662929 100
2.1218245 -0.93799222 -0.3429957 100
2.1288381 -0.93523443 -0.33936214 100
2.1358514 -0.93247664 -0.33572856 100
2.1428649 -0.92971885 -0.33209497 100
2.1498783 -0.92696106 -0.32846141 100
2.1568918 -0.92420322 -0.32482782 100
2.1639051 -0.92144543 -0.32119423 100
2.1709187 -0.91868764 -0.31756067 100
2.177932 -0.91592985 -0.31392708 100
2.1849456 -0.91317207 -0.3102935 100
2.1919589 -0.91041428 -0.30665994 100
2.1989725 -0.90765643 -0.30302635 100
2.2358131 -0.85777646 -0.19065551 100
2.2312651 -0.85606664 -0.18379188 100
2.2267168 -0.85435683 -0.17692824 100
2.2221687 -0.85264701 -0.17006461 100
2.2176206 -0.85093725 -0.16320097 100
2.2130723 -0.84922743 -0.15633734 100
2.2085242 -0.84751761 -0.14947371 100
2.2039759 -0.84580779 -0.14261007 100
2.1994278 -0.84409797 -0.13574645 100
2.1948798 -0.84238815 -0.12888281 100
2.1903315 -0.84067833 -0.12201918 100
2.1857834 -0.83896858 -0.11515555 100
2.1812353 -0.83725876 -0.10829192 100
2.176687 -0.83554894 -0.10142828 100
2.1721389 -0.83383912 -0.094564646 100
2.1675906 -0.8321293 -0.087701008 100
2.1630425 -0.83041948 -0.080837369 100
2.1584945 -0.82870966 -0.073973738 100
2.1539462 -0.82699984 -0.067110099 100
2.1493981 -0.82529008 -0.06024646 100
2.1448498 -0.82358027 -0.053382825 100
2.1403017 -0.82187045 -0.046519186 100
2.1357536 -0.82016063 -0.039655551 100
2.1312053 -0.81845081 -0.032791913 100
2.1266572 -0.81674099 -0.025928276 100
2.1221092 -0.81503117 -0.019064639 100
2.1175609 -0.81332135 -0.012201013 100
2.1130128 -0.81161159 -0.0053373864 100
2.1084645 -0.80990177 0.0015262403 100
2.1039164 -0.80819196 0.0083898669 100
2.0993683 -0.80648214 0.015253494 100
2.09482 -0.80477232 0.022117119 100
2.0902719 -0.8030625 0.028980747 100
2.0857239 -0.80135274 0.035844374 100
2.0811756 -0.79964292 0.042707998 100
2.0766275 -0.7979331 0.049571626 100
2.0720794 -0.79622328 0.056435253 100
2.0675311 -0.79451346 0.063298881 100
2.062983 -0.79280365 0.070162505 100
2.0584347 -0.79109389 0.077026136 100
2.0538867 -0.78938407 0.08388976 100
2.0493386 -0.78767425 0.090753384 100
2.0447903 -0.78596443 0.097617015 100
2.0402422 -0.78425461 0.10448064 100
2.0356941 -0.78254479 0.11134426 100
2.0311458 -0.78083503 0.11820789 100
2.0265977 -0.77912521 0.12507153 100
2.0220497 -0.77741539 0.13193515 100
2.0175014 -0.77570558 0.13879877 100
2.0129533 -0.77399576 0.1456624 100
2.0084052 -0.77228594 0.15252602 100
