# .PCD v0.7 - Point Cloud Data file format
VERSION 0.7
FIELDS x y z intensity
SIZE 4 4 4 4
TYPE F F F F
COUNT 1 1 1 1
WIDTH 167
HEIGHT 1
VIEWPOINT 0 0 0 1 0 0 0
POINTS 167
DATA ascii
2.2705684 -0.83498305 -0.27633676 100
2.2689893 -0.82708162 -0.27917048 100
2.2674105 -0.81918019 -0.28200418 100
2.2658315 -0.81127876 -0.28483787 100
2.2642527 -0.80337733 -0.2876716 100
2.2626736 -0.7954759 -0.29050529 100
2.2610948 -0.78757447 -0.29333901 100
2.2595158 -0.77967304 -0.29617271 100
2.257937 -0.77177161 -0.2990064 100
2.2563579 -0.76387018 -0.30184013 100
2.2547791 -0.75596875 -0.30467382 100
2.2532001 -0.74806732 -0.30750751 100
2.2516212 -0.74016589 -0.31034124 100
2.2500422 -0.73226446 -0.31317493 100
2.2484634 -0.72436303 -0.31600863 100
2.2468846 -0.7164616 -0.31884235 100
2.2453055 -0.70856017 -0.32167605 100
2.2437267 -0.70065874 -0.32450977 100
2.2421477 -0.69275731 -0.32734346 100
2.2405689 -0.68485588 -0.33017716 100
2.2389898 -0.67695445 -0.33301088 100
2.237411 -0.66905302 -0.33584458 100
2.235832 -0.66115159 -0.33867827 100
2.2342532 -0.65325016 -0.34151199 100
2.2326741 -0.64534873 -0.34434569 100
2.2310953 -0.6374473 -0.34717941 100
2.2295163 -0.62954587 -0.35001311 100
2.2279375 -0.62164444 -0.3528468 100
2.2263587 -0.61374301 -0.3556805 100
2.2247796 -0.60584158 -0.35851422 100
2.2232008 -0.59794015 -0.36134791 100
2.2216218 -0.59003872 -0.36418161 100
2.2200429 -0.58213735 -0.3670153 100
2.2184639 -0.57423592 -0.36984903 100
2.2168851 -0.56633449 -0.37268272 100
2.215306 -0.55843306 -0.37551641 100
2.2137272 -0.55053163 -0.37835011 100
2.2121482 -0.5426302 -0.38118383 100
2.2105694 -0.53472877 -0.38401753 100
2.2089903 -0.52682739 -0.38685122 100
2.2074115 -0.51892596 -0.38968495 100
2.2058327 -0.51102453 -0.39251864 100
2.2042537 -0.5031231 -0.39535233 100
2.2026749 -0.49522167 -0.39818603 100
2.2010958 -0.48732027 -0.40101975 100
2.199517 -0.47941884 -0.40385345 100
2.197938 -0.47151741 -0.40668714 100
2.1963592 -0.46361598 -0.40952083 100
2.1947801 -0.45571458 -0.41235456 100
2.1932013 -0.44781315 -0.41518825 100
2.1916223 -0.43991172 -0.41802195 100
2.1900434 -0.43201032 -0.42085564 100
2.1884646 -0.42410889 -0.42368937 100
2.1868856 -0.41620746 -0.42652306 100
2.1853068 -0.40830603 -0.42935675 100
1.8150529 -1.0628225 -0.5034048 100
1.8222433 -1.0599231 -0.49965626 100
1.8294339 -1.0570238 -0.49590769 100
1.8366244 -1.0541244 -0.49215913 100
1.843815 -1.0512249 -0.48841059 100
1.8510056 -1.0483255 -0.48466203 100
1.858196 -1.0454262 -0.48091346 100
1.8653866 -1.0425268 -0.47716492 100
1.8725772 -1.0396274 -0.47341636 100
1.8797677 -1.0367281 -0.46966779 100
1.8869582 -1.0338287 -0.46591926 100
1.8941487 -1.0309293 -0.46217069 100
1.9013393 -1.02803 -0.45842212 100
1.9085299 -1.0251306 -0.45467359 100
1.9157203 -1.0222312 -0.45092502 100
1.9229109 -1.0193318 -0.44717646 100
1.9301015 -1.0164325 -0.44342789 100
1.937292 -1.0135331 -0.43967935 100
1.9444826 -1.0106337 -0.43593079 100
1.951673 -1.0077344 -0.43218222 100
1.9588636 -1.004835 -0.42843369 100
1.9660542 -1.0019356 -0.42468512 100
1.9732447 -0.99903625 -0.42093655 100
1.9804353 -0.9961369 -0.41718799 100
1.9876258 -0.9932375 -0.41343945 100
1.9948163 -0.99033815 -0.40969089 100
2.0020068 -0.98743874 -0.40594232 100
2.0091975 -0.98453939 -0.40219378 100
2.0163879 -0.98164004 -0.39844522 100
2.0235784 -0.97874063 -0.39469668 100
2.0307691 -0.97584128 -0.39094812 100
2.0379596 -0.97294194 -0.38719955 100
2.04515 -0.97004253 -0.38345101 100
2.0523405 -0.96714318 -0.37970245 100
2.0595312 -0.96424383 -0.37595391 100
2.0667217 -0.96134442 -0.37220535 100
2.0739121 -0.95844507 -0.36845681 100
2.0811028 -0.95554572 -0.36470824 100
2.0882933 -0.95264632 -0.36095971 100
2.0954838 -0.94974697 -0.35721114 100
2.1026742 -0.94684762 -0.35346258 100
2.109865 -0.94394821 -0.34971404 100
2.1170554 -0.94104886 -0.34596547 100
2.1242459 -0.93814951 -0.34221694 100
2.1314366 -0.9352501 -0.33846837 100
2.1386271 -0.93235075 -0.33471984 100
2.1458175 -0.92945141 -0.33097127 100
2.153008 -0.926552 -0.32722273 100
2.1601987 -0.92365265 -0.32347417 100
2.1673892 -0.9207533 -0.3197256 100
2.1745796 -0.91785389 -0.31597707 100
2.1817701 -0.91495454 -0.3122285 100
2.1889608 -0.91205519 -0.30847996 100
2.1961513 -0.90915579 -0.3047314 100
2.2033417 -0.90625644 -0.30098286 100
2.2105324 -0.90335709 -0.2972343 100
2.2177229 -0.90045768 -0.29348576 100
2.2249134 -0.89755833 -0.28973719 100
2.2495918 -0.86452699 -0.21750069 100
2.2450104 -0.86274612 -0.21055602 100
2.2404292 -0.86096525 -0.20361136 100
2.2358477 -0.85918438 -0.19666669 100
2.2312663 -0.85740352 -0.18972202 100
2.2266848 -0.85562265 -0.18277736 100
2.2221036 -0.85384178 -0.17583269 100
2.2175221 -0.85206091 -0.16888802 100
2.2129407 -0.85027999 -0.16194336 100
2.2083595 -0.84849912 -0.15499869 100
2.203778 -0.84671825 -0.14805403 100
2.1991966 -0.84493738 -0.14110936 100
2.1946151 -0.84315652 -0.13416471 100
2.1900339 -0.84137565 -0.12722003 100
2.1854525 -0.83959478 -0.12027536 100
2.180871 -0.83781391 -0.11333069 100
2.1762898 -0.83603305 -0.10638603 100
2.1717083 -0.83425218 -0.099441357 100
2.1671269 -0.83247125 -0.092496686 100
2.1625454 -0.83069038 -0.085552014 100
2.1579642 -0.82890952 -0.078607351 100
2.1533828 -0.82712865 -0.071662679 100
2.1488013 -0.82534778 -0.064718008 100
2.1442201 -0.82356691 -0.05777334 100
2.1396387 -0.82178605 -0.050828669 100
2.1350572 -0.82000518 -0.043884002 100
2.1304758 -0.81822431 -0.036939342 100
2.1258945 -0.81644344 -0.029994681 100
2.1213131 -0.81466258 -0.023050023 100
2.1167316 -0.81288165 -0.016105365 100
2.1121504 -0.81110078 -0.0091607049 100
2.107569 -0.80931991 -0.002216046 100
2.1029875 -0.80753905 0.004728613 100
2.0984063 -0.80575818 0.011673273 100
2.0938249 -0.80397731 0.018617932 100
2.0892434 -0.80219644 0.02556259 100
2.0846622 -0.80041558 0.032507248 100
2.0800807 -0.79863471 0.039451908 100
2.0754993 -0.79685384 0.046396568 100
2.0709178 -0.79507297 0.053341229 100
2.0663366 -0.79329211 0.060285885 100
2.0617552 -0.79151124 0.067230545 100
2.0571737 -0.78973037 0.074175201 100
2.0525925 -0.7879495 0.081119865 100
2.0480111 -0.78616863 0.088064522 100
2.0434296 -0.78438771 0.095009178 100
2.0388484 -0.78260684 0.10195384 100
2.0342669 -0.78082597 0.1088985 100
2.0296855 -0.7790451 0.11584316 100
2.0251043 -0.77726424 0.12278782 100
2.0205228 -0.77548337 0.12973247 100
2.0159414 -0.7737025 0.13667713 100
2.0113599 -0.77192163 0.14362179 100
2.0067787 -0.77014077 0.15056646 100
