# .PCD v0.7 - Point Cloud Data file format
VERSION 0.7
FIELDS x y z intensity
SIZE 4 4 4 4
TYPE F F F F
COUNT 1 1 1 1
WIDTH 168
HEIGHT 1
VIEWPOINT 0 0 0 1 0 0 0
POINTS 168
DATA ascii
2.268574 -0.83538079 -0.27814806 100
2.2670822 -0.82749021 -0.28106862 100
2.2655904 -0.81959969 -0.28398919 100
2.2640984 -0.81170911 -0.28690976 100
2.2626066 -0.80381852 -0.28983036 100
2.2611148 -0.79592794 -0.29275092 100
2.2596231 -0.78803742 -0.29567149 100
2.2581313 -0.78014684 -0.29859206 100
2.2566392 -0.77225626 -0.30151263 100
2.2551475 -0.76436573 -0.3044332 100
2.2536557 -0.75647515 -0.30735376 100
2.2521639 -0.74858457 -0.31027433 100
2.2506719 -0.74069405 -0.3131949 100
2.2491801 -0.73280346 -0.31611547 100
2.2476883 -0.72491288 -0.31903607 100
2.2461965 -0.7170223 -0.32195663 100
2.2447047 -0.70913172 -0.3248772 100
2.2432127 -0.7012412 -0.32779777 100
2.2417209 -0.69335061 -0.33071834 100
2.2402291 -0.68546003 -0.33363891 100
2.2387373 -0.67756945 -0.3365595 100
2.2372453 -0.66967887 -0.33948007 100
2.2357535 -0.66178834 -0.34240064 100
2.2342618 -0.65389776 -0.34532121 100
2.23277 -0.64600718 -0.34824178 100
2.2312779 -0.6381166 -0.35116234 100
2.2297862 -0.63022608 -0.35408291 100
2.2282944 -0.62233549 -0.35700348 100
2.2268026 -0.61444491 -0.35992405 100
2.2253108 -0.60655439 -0.36284462 100
2.2238188 -0.59866381 -0.36576518 100
2.222327 -0.59077328 -0.36868575 100
2.2208352 -0.5828827 -0.37160632 100
2.2193434 -0.57499218 -0.37452689 100
2.2178514 -0.5671016 -0.37744746 100
2.2163596 -0.55921102 -0.38036802 100
2.2148678 -0.55132049 -0.38328859 100
2.213376 -0.54342991 -0.38620916 100
2.2118843 -0.53553939 -0.38912973 100
2.2103922 -0.52764881 -0.3920503 100
2.2089005 -0.51975822 -0.39497086 100
2.2074087 -0.5118677 -0.39789146 100
2.2059169 -0.50397712 -0.40081203 100
2.2044251 -0.49608657 -0.4037326 100
2.2029331 -0.48819602 -0.40665317 100
2.2014413 -0.48030546 -0.40957373 100
2.1999495 -0.47241491 -0.4124943 100
2.1984577 -0.46452436 -0.41541487 100
2.1969657 -0.45663378 -0.41833544 100
2.1954739 -0.44874322 -0.42125601 100
2.1939821 -0.44085267 -0.42417657 100
2.1924903 -0.43296212 -0.42709714 100
2.1909986 -0.42507157 -0.43001771 100
2.1895065 -0.41718099 -0.43293828 100
2.1880147 -0.40929043 -0.43585885 100
1.8074085 -1.0608963 -0.50005621 100
1.8146747 -1.058074 -0.49637297 100
1.821941 -1.0552517 -0.49268973 100
1.8292073 -1.0524294 -0.48900649 100
1.8364735 -1.0496072 -0.48532325 100
1.8437397 -1.0467848 -0.48163998 100
1.851006 -1.0439625 -0.47795674 100
1.8582723 -1.0411402 -0.4742735 100
1.8655386 -1.0383179 -0.47059026 100
1.8728049 -1.0354956 -0.46690702 100
1.880071 -1.0326732 -0.46322379 100
1.8873373 -1.029851 -0.45954055 100
1.8946036 -1.0270287 -0.45585731 100
1.9018699 -1.0242064 -0.45217404 100
1.9091362 -1.0213841 -0.4484908 100
1.9164025 -1.0185617 -0.44480756 100
1.9236686 -1.0157394 -0.44112432 100
1.9309349 -1.0129172 -0.43744108 100
1.9382012 -1.0100949 -0.43375781 100
1.9454675 -1.0072726 -0.43007457 100
1.9527338 -1.0044502 -0.42639133 100
1.96 -1.0016279 -0.42270809 100
1.9672663 -0.99880564 -0.41902483 100
1.9745325 -0.9959833 -0.41534159 100
1.9817988 -0.99316102 -0.41165835 100
1.9890651 -0.99033874 -0.40797511 100
1.9963313 -0.9875164 -0.40429187 100
2.0035975 -0.98469412 -0.40060863 100
2.0108638 -0.98187184 -0.39692539 100
2.0181301 -0.9790495 -0.39324215 100
2.0253963 -0.97622722 -0.38955891 100
2.0326626 -0.97340488 -0.38587567 100
2.0399289 -0.9705826 -0.38219243 100
2.0471952 -0.96776032 -0.37850919 100
2.0544615 -0.96493798 -0.37482595 100
2.0617275 -0.96211571 -0.37114272 100
2.0689938 -0.95929343 -0.36745948 100
2.0762601 -0.95647109 -0.36377624 100
2.0835264 -0.95364881 -0.36009297 100
2.0907927 -0.95082653 -0.35640973 100
2.0980589 -0.94800419 -0.35272649 100
2.1053252 -0.94518191 -0.34904325 100
2.1125915 -0.94235963 -0.34536001 100
2.1198575 -0.93953729 -0.34167677 100
2.1271238 -0.93671501 -0.33799353 100
2.1343901 -0.93389273 -0.33431029 100
2.1416564 -0.93107039 -0.33062705 100
2.1489227 -0.92824811 -0.32694381 100
2.156189 -0.92542583 -0.32326058 100
2.1634552 -0.92260349 -0.31957734 100
2.1707215 -0.91978121 -0.3158941 100
2.1779878 -0.91695887 -0.31221086 100
2.1852539 -0.91413659 -0.30852762 100
2.1925201 -0.91131431 -0.30484438 100
2.1997864 -0.90849197 -0.30116114 100
2.2070527 -0.90566969 -0.2974779 100
2.214319 -0.90284741 -0.29379466 100
2.2215853 -0.90002507 -0.29011142 100
2.2288516 -0.89720279 -0.28642818 100
2.2469444 -0.86664623 -0.21620722 100
2.2424264 -0.86483389 -0.20924178 100
2.2379081 -0.86302161 -0.20227635 100
2.2333901 -0.86120927 -0.19531091 100
2.2288721 -0.85939693 -0.18834548 100
2.224354 -0.8575846 -0.18138003 100
2.2198358 -0.85577232 -0.1744146 100
2.2153177 -0.85395998 -0.16744916 100
2.2107997 -0.85214764 -0.16048373 100
2.2062817 -0.8503353 -0.1535183 100
2.2017634 -0.84852296 -0.14655286 100
2.1972454 -0.84671068 -0.13958743 100
2.1927273 -0.84489834 -0.13262199 100
2.1882093 -0.843086 -0.12565656 100
2.1836913 -0.84127367 -0.11869112 100
2.179173 -0.83946133 -0.11172567 100
2.174655 -0.83764905 -0.10476024 100
2.1701369 -0.83583671 -0.097794794 100
2.1656189 -0.83402437 -0.090829358 100
2.1611006 -0.83221203 -0.083863914 100
2.1565826 -0.83039969 -0.076898478 100
2.1520646 -0.82858741 -0.069933034 100
2.1475465 -0.82677507 -0.062967598 100
2.1430283 -0.82496274 -0.056002155 100
2.1385102 -0.8231504 -0.049036715 100
2.1339922 -0.82133806 -0.042071275 100
2.1294742 -0.81952578 -0.035105847 100
2.1249559 -0.81771344 -0.028140418 100
2.1204379 -0.8159011 -0.02117499 100
2.1159198 -0.81408876 -0.01420956 100
2.1114018 -0.81227648 -0.0072441306 100
2.1068838 -0.81046414 -0.00027870107 100
2.1023655 -0.8086518 0.0066867284 100
2.0978475 -0.80683947 0.013652158 100
2.0933294 -0.80502719 0.020617587 100
2.0888114 -0.80321485 0.027583016 100
2.0842931 -0.80140251 0.034548447 100
2.0797751 -0.79959017 0.041513875 100
2.0752571 -0.79777789 0.048479304 100
2.070739 -0.79596555 0.055444732 100
2.066221 -0.79415321 0.062410165 100
2.0617027 -0.79234087 0.069375589 100
2.0571847 -0.7905286 0.076341018 100
2.0526667 -0.78871626 0.083306454 100
2.0481486 -0.78690392 0.090271883 100
2.0436306 -0.78509158 0.097237311 100
2.0391123 -0.7832793 0.10420274 100
2.0345943 -0.78146696 0.11116817 100
2.0300763 -0.77965462 0.1181336 100
2.0255582 -0.77784228 0.12509903 100
2.02104 -0.77603 0.13206446 100
2.0165219 -0.77421767 0.13902989 100
2.0120039 -0.77240533 0.14599532 100
2.0074859 -0.77059299 0.15296075 100
