# .PCD v0.7 - Point Cloud Data file format
VERSION 0.7
FIELDS x y z intensity
SIZE 4 4 4 4
TYPE F F F F
COUNT 1 1 1 1
WIDTH 168
HEIGHT 1
VIEWPOINT 0 0 0 1 0 0 0
POINTS 168
DATA ascii
2.2752414 -0.83818954 -0.27782628 100
2.273608 -0.83028752 -0.28066486 100
2.2719746 -0.82238549 -0.28350341 100
2.2703409 -0.81448346 -0.286342 100
2.2687075 -0.80658144 -0.28918055 100
2.2670741 -0.79867941 -0.29201913 100
2.2654407 -0.79077739 -0.29485771 100
2.2638073 -0.78287536 -0.29769626 100
2.2621737 -0.77497339 -0.30053484 100
2.2605402 -0.76707137 -0.30337343 100
2.2589068 -0.75916934 -0.30621198 100
2.2572734 -0.75126731 -0.30905056 100
2.25564 -0.74336529 -0.31188911 100
2.2540064 -0.73546326 -0.31472769 100
2.252373 -0.72756124 -0.31756628 100
2.2507396 -0.71965921 -0.32040483 100
2.2491062 -0.71175718 -0.32324341 100
2.2474728 -0.70385516 -0.32608199 100
2.2458391 -0.69595313 -0.32892054 100
2.2442057 -0.6880511 -0.33175912 100
2.2425723 -0.68014908 -0.33459771 100
2.2409389 -0.67224705 -0.33743629 100
2.2393055 -0.66434503 -0.34027484 100
2.2376721 -0.656443 -0.34311342 100
2.2360384 -0.64854097 -0.345952 100
2.234405 -0.64063895 -0.34879056 100
2.2327716 -0.63273692 -0.35162914 100
2.2311382 -0.6248349 -0.35446769 100
2.2295048 -0.61693287 -0.35730627 100
2.2278712 -0.60903084 -0.36014482 100
2.2262378 -0.60112882 -0.36298341 100
2.2246044 -0.59322685 -0.36582199 100
2.222971 -0.58532482 -0.36866054 100
2.2213376 -0.5774228 -0.37149912 100
2.2197039 -0.56952077 -0.37433767 100
2.2180705 -0.56161875 -0.37717625 100
2.2164371 -0.55371678 -0.38001481 100
2.2148037 -0.54581475 -0.38285339 100
2.2131703 -0.53791273 -0.38569194 100
2.2115369 -0.5300107 -0.38853052 100
2.2099032 -0.52210867 -0.39136907 100
2.2082698 -0.51420665 -0.39420766 100
2.2066364 -0.50630468 -0.39704621 100
2.205003 -0.49840266 -0.39988479 100
2.2033696 -0.49050063 -0.40272337 100
2.201736 -0.4825986 -0.40556192 100
2.2001026 -0.47469661 -0.40840051 100
2.1984692 -0.46679458 -0.41123906 100
2.1968358 -0.45889255 -0.41407764 100
2.1952024 -0.45099056 -0.41691619 100
2.1935689 -0.44308853 -0.41975477 100
2.1919353 -0.43518651 -0.42259333 100
2.1903019 -0.42728451 -0.42543191 100
2.1886685 -0.41938248 -0.42827046 100
2.1870351 -0.41148046 -0.43110904 100
2.1854017 -0.40357846 -0.43394759 100
1.8123325 -1.0626274 -0.5025894 100
1.81958 -1.0597637 -0.49891746 100
1.8268274 -1.0569 -0.49524552 100
1.834075 -1.0540363 -0.49157354 100
1.8413224 -1.0511726 -0.4879016 100
1.8485699 -1.0483088 -0.48422965 100
1.8558174 -1.0454452 -0.48055771 100
1.8630649 -1.0425814 -0.47688577 100
1.8703123 -1.0397178 -0.47321382 100
1.8775598 -1.036854 -0.46954188 100
1.8848073 -1.0339904 -0.4658699 100
1.8920548 -1.0311266 -0.46219796 100
1.8993022 -1.028263 -0.45852602 100
1.9065498 -1.0253992 -0.45485407 100
1.9137973 -1.0225356 -0.45118213 100
1.9210447 -1.0196718 -0.44751018 100
1.9282923 -1.0168082 -0.44383821 100
1.9355397 -1.0139444 -0.44016626 100
1.9427872 -1.0110807 -0.43649432 100
1.9500347 -1.008217 -0.43282238 100
1.9572822 -1.0053533 -0.42915043 100
1.9645296 -1.0024896 -0.42547846 100
1.9717772 -0.99962586 -0.42180651 100
1.9790246 -0.99676216 -0.41813457 100
1.9862721 -0.99389845 -0.41446263 100
1.9935197 -0.99103475 -0.41079068 100
2.000767 -0.98817104 -0.40711874 100
2.0080147 -0.98530734 -0.40344676 100
2.0152621 -0.98244363 -0.39977482 100
2.0225096 -0.97957993 -0.39610288 100
2.029757 -0.97671622 -0.39243093 100
2.0370045 -0.97385252 -0.38875899 100
2.0442519 -0.97098881 -0.38508704 100
2.0514994 -0.9681251 -0.3814151 100
2.0587468 -0.9652614 -0.37774315 100
2.0659945 -0.96239769 -0.37407121 100
2.0732419 -0.95953399 -0.37039927 100
2.0804894 -0.95667028 -0.36672732 100
2.0877368 -0.95380658 -0.36305538 100
2.0949843 -0.95094287 -0.35938343 100
2.1022317 -0.94807923 -0.35571149 100
2.1094792 -0.94521552 -0.35203955 100
2.1167266 -0.94235182 -0.3483676 100
2.1239743 -0.93948811 -0.34469566 100
2.1312218 -0.93662441 -0.34102371 100
2.1384692 -0.9337607 -0.33735177 100
2.1457167 -0.930897 -0.33367983 100
2.1529641 -0.92803329 -0.33000788 100
2.1602116 -0.92516959 -0.32633594 100
2.167459 -0.92230588 -0.32266399 100
2.1747065 -0.91944218 -0.31899205 100
2.1819541 -0.91657847 -0.3153201 100
2.1892016 -0.91371477 -0.31164816 100
2.196449 -0.91085106 -0.30797622 100
2.2036965 -0.90798736 -0.30430427 100
2.2109439 -0.90512365 -0.30063233 100
2.2181914 -0.90225995 -0.29696038 100
2.2254388 -0.89939624 -0.29328844 100
2.2498329 -0.86371583 -0.2137299 100
2.2452402 -0.86194378 -0.20680124 100
2.2406476 -0.86017168 -0.19987255 100
2.2360549 -0.85839963 -0.19294389 100
2.2314622 -0.85662752 -0.1860152 100
2.2268696 -0.85485548 -0.17908652 100
2.2222769 -0.85308337 -0.17215785 100
2.2176843 -0.85131127 -0.16522917 100
2.2130914 -0.84953922 -0.1583005 100
2.2084987 -0.84776711 -0.15137184 100
2.2039061 -0.84599507 -0.14444315 100
2.1993134 -0.84422296 -0.13751449 100
2.1947207 -0.84245092 -0.1305858 100
2.1901281 -0.84067881 -0.12365713 100
2.1855354 -0.83890671 -0.11672845 100
2.1809428 -0.83713466 -0.10979977 100
2.1763499 -0.83536255 -0.10287109 100
2.1717572 -0.83359051 -0.095942415 100
2.1671646 -0.8318184 -0.089013733 100
2.1625719 -0.8300463 -0.082085058 100
2.1579792 -0.82827425 -0.075156376 100
2.1533866 -0.82650214 -0.068227701 100
2.1487939 -0.8247301 -0.061299019 100
2.1442013 -0.82295799 -0.05437034 100
2.1396084 -0.82118595 -0.047441661 100
2.1350157 -0.81941384 -0.040512983 100
2.1304231 -0.81764174 -0.033584315 100
2.1258304 -0.81586969 -0.026655644 100
2.1212378 -0.81409758 -0.019726977 100
2.1166451 -0.81232554 -0.012798307 100
2.1120524 -0.81055343 -0.0058696391 100
2.1074598 -0.80878139 0.0010590295 100
2.1028671 -0.80700928 0.0079876985 100
2.0982742 -0.80523723 0.014916367 100
2.0936816 -0.80346513 0.021845035 100
2.0890889 -0.80169308 0.028773705 100
2.0844963 -0.79992098 0.035702374 100
2.0799036 -0.79814887 0.042631041 100
2.0753109 -0.79637682 0.049559709 100
2.0707183 -0.79460472 0.05648838 100
2.0661256 -0.79283267 0.063417047 100
2.061533 -0.79106057 0.070345715 100
2.0569403 -0.78928852 0.077274382 100
2.0523474 -0.78751642 0.08420305 100
2.0477548 -0.78574437 0.091131724 100
2.0431621 -0.78397226 0.098060392 100
2.0385695 -0.78220022 0.10498906 100
2.0339768 -0.78042811 0.11191773 100
2.0293841 -0.77865607 0.11884639 100
2.0247915 -0.77688396 0.12577507 100
2.0201988 -0.77511185 0.13270374 100
2.0156062 -0.77333981 0.1396324 100
2.0110133 -0.7715677 0.14656107 100
2.0064206 -0.76979566 0.15348974 100
