# .PCD v0.7 - Point Cloud Data file format
VERSION 0.7
FIELDS x y z rgb
SIZE 4 4 4 4
TYPE F F F U
COUNT 1 1 1 1
WIDTH 823
HEIGHT 1
VIEWPOINT 0 0 0 1 0 0 0
POINTS 823
DATA ascii
1.9787464 -0.49629253 -0.54662579 4291088900
1.9714735 -0.50142306 -0.54507297 4291088900
1.9623179 -0.51370645 -0.54352003 4291088900
1.9642473 -0.52154464 -0.54455531 4291088900
1.955045 -0.52604765 -0.54248476 4291088900
1.9475127 -0.53168327 -0.54093182 4291088900
1.9475069 -0.53899342 -0.54144943 4291088900
1.9530537 -0.54787534 -0.54352003 4291088900
1.9492711 -0.55416113 -0.54300237 4291088900
1.9361868 -0.5577535 -0.53989661 4291088900
1.9380356 -0.5652529 -0.54093182 4291088900
1.9396561 -0.5734477 -0.54196709 4291088900
1.9376426 -0.58021498 -0.54196709 4291088900
1.9320102 -0.58551651 -0.54093182 4291088900
1.9263642 -0.59078729 -0.53989661 4291088900
1.9225492 -0.59659952 -0.53937894 4291088900
1.9276158 -0.60629565 -0.54144943 4291088900
1.9254876 -0.61302066 -0.54144943 4291088900
1.923336 -0.6197381 -0.54144943 4291088900
1.9101411 -0.62285471 -0.53834367 4291088900
1.9097897 -0.63012379 -0.53886127 4291088900
1.9130759 -0.63862139 -0.54041415 4291088900
1.910835 -0.64529544 -0.54041415 4291088900
1.9122273 -0.65321052 -0.54144943 4291088900
1.9062834 -0.65861976 -0.54041415 4291088900
1.8966781 -0.6627211 -0.53834367 4291088900
1.8943533 -0.66933769 -0.53834367 4291088900
1.9029205 -0.67984575 -0.54144943 4291088900
1.9023528 -0.68714035 -0.54196709 4291088900
1.8872403 -0.68913823 -0.53834367 4291088900
1.8776946 -0.69271809 -0.53627306 4291088900
1.8806953 -0.70129317 -0.537826 4291088900
1.8910145 -0.71229267 -0.54144943 4291088900
1.8885165 -0.71888924 -0.54144943 4291088900
1.8751775 -0.72131562 -0.53834367 4291088900
1.8689201 -0.72678322 -0.53730839 4291088900
1.873564 -0.73612839 -0.53937894 4291088900
1.8763695 -0.744802 -0.54093182 4291088900
1.8755513 -0.75206631 -0.54144943 4291088900
1.8621716 -0.75425714 -0.53834367 4291088900
1.8614482 -0.76115924 -0.53886127 4291088900
1.8605654 -0.76838976 -0.53937894 4291088900
1.8650038 -0.7778542 -0.54144943 4291088900
1.8606336 -0.78328502 -0.54093182 4291088900
1.852692 -0.78718436 -0.53937894 4291088900
1.8428314 -0.79060012 -0.53730839 4291088900
1.8524693 -0.80240285 -0.54093182 4291088900
1.847746 -0.80841279 -0.54041415 4291088900
1.8449129 -0.81485772 -0.54041415 4291088900
1.840293 -0.82050604 -0.53989661 4291088900
1.8374176 -0.82692486 -0.53989661 4291088900
1.8364242 -0.833812 -0.54041415 4291088900
1.8389184 -0.84231073 -0.54196709 4291088900
1.8375723 -0.84985608 -0.54248476 4291088900
1.8239424 -0.85168123 -0.53937894 4291088900
1.8228559 -0.85854816 -0.53989661 4291088900
1.8234886 -0.86624604 -0.54093182 4291088900
1.8220434 -0.87375897 -0.54144943 4291088900
1.8223064 -0.88211477 -0.54248476 4291088900
1.8157443 -0.88677484 -0.54144943 4291088900
1.8091718 -0.89139986 -0.54041415 4291088900
1.8148564 -0.90169227 -0.54300237 4291088900
1.8187654 -0.91116685 -0.54507297 4291088900
1.8140094 -0.91632205 -0.54455531 4291088900
1.8020329 -0.91857785 -0.54196709 4291088900
1.7969362 -0.9242928 -0.54144943 4291088900
1.800395 -0.93443251 -0.54352003 4291088900
1.8075565 -0.94577122 -0.54662579 4291088900
1.800993 -0.94995761 -0.54559058 4291088900
1.7925493 -0.95351666 -0.54403764 4291088900
1.7960197 -0.96342087 -0.54610825 4291088900
2.1159172 -0.39980671 -0.49714181 4291088900
2.1054254 -0.413068 -0.49534222 4291088900
2.1135254 -0.42232406 -0.49759173 4291088900
2.1005805 -0.42736793 -0.4948923 4291088900
2.0952597 -0.43390739 -0.49399251 4291088900
2.1013596 -0.44282588 -0.49579209 4291088900
2.1036122 -0.45097533 -0.49669194 4291088900
2.102025 -0.45831555 -0.49669194 4291088900
2.0832894 -0.46185413 -0.49264279 4291088900
2.0797637 -0.46869496 -0.49219292 4291088900
2.0819972 -0.47645855 -0.49309272 4291088900
2.0841174 -0.48460591 -0.49399251 4291088900
2.0862062 -0.4927738 -0.4948923 4291088900
2.0693135 -0.49641627 -0.49129307 4291088900
2.0694616 -0.5040977 -0.491743 4291088900
2.0581417 -0.50933856 -0.48949349 4291088900
2.0602214 -0.51710963 -0.49039328 4291088900
2.058404 -0.52429801 -0.49039328 4291088900
2.0471275 -0.52904201 -0.48814377 4291088900
2.0396132 -0.53470206 -0.48679405 4291088900
2.0491292 -0.5444653 -0.48949349 4291088900
2.0453343 -0.55110776 -0.48904356 4291088900
2.0433984 -0.55824393 -0.48904356 4291088900
2.030071 -0.56260693 -0.48634419 4291088900
2.0280948 -0.56968975 -0.48634419 4291088900
2.0317166 -0.57836634 -0.48769391 4291088900
2.0335324 -0.58618009 -0.4885937 4291088900
2.0296032 -0.5927285 -0.48814377 4291088900
2.0200472 -0.59759837 -0.48634419 4291088900
2.0141098 -0.6038788 -0.48544434 4291088900
2.0139611 -0.61112034 -0.48589426 4291088900
2.0156493 -0.61893958 -0.48679405 4291088900
2.0173078 -0.62677681 -0.48769391 4291088900
2.0037336 -0.63100594 -0.48499447 4291088900
1.9978056 -0.63681281 -0.48409468 4291088900
2.0029888 -0.64617574 -0.48589426 4291088900
2.000721 -0.65316355 -0.48589426 4291088900
2.0021296 -0.66136581 -0.48679405 4291088900
1.9887195 -0.66464442 -0.48409468 4291088900
1.9845412 -0.67095816 -0.48364475 4291088900
1.9895626 -0.68040365 -0.48544434 4291088900
1.9871753 -0.68734443 -0.48544434 4291088900
1.9829246 -0.69363332 -0.48499447 4291088900
1.976817 -0.69925112 -0.48409468 4291088900
1.9725292 -0.70549095 -0.48364475 4291088900
1.9737196 -0.71369737 -0.48454455 4291088900
1.9768333 -0.7222448 -0.48589426 4291088900
1.9779563 -0.73049104 -0.48679405 4291088900
1.9572649 -0.73023427 -0.48229504 4291088900
1.954704 -0.73706204 -0.48229504 4291088900
1.9557613 -0.74526846 -0.48319483 4291088900
1.9695152 -0.75839329 -0.48724398 4291088900
1.9632237 -0.76385045 -0.48634419 4291088900
1.9495296 -0.76676124 -0.48364475 4291088900
1.9432193 -0.7721225 -0.48274496 4291088900
1.9531716 -0.78398222 -0.48589426 4291088900
1.9486171 -0.79006302 -0.48544434 4291088900
1.9495937 -0.79799706 -0.48634419 4291088900
1.9359906 -0.80033058 -0.48364475 4291088900
1.9403783 -0.81008661 -0.48544434 4291088900
1.9412731 -0.81803018 -0.48634419 4291088900
1.9367564 -0.82370043 -0.48589426 4291088900
1.9338692 -0.83045602 -0.48589426 4291088900
1.923807 -0.83410066 -0.48409468 4291088900
1.9262393 -0.84315515 -0.48544434 4291088900
1.9177892 -0.84784573 -0.48409468 4291088900
1.9326136 -0.86247665 -0.4885937 4291088900
1.9207073 -0.86521548 -0.48634419 4291088900
1.910731 -0.86835486 -0.48454455 4291088900
1.9113837 -0.87631059 -0.48544434 4291088900
1.9099276 -0.88412905 -0.48589426 4291088900
1.917267 -0.896074 -0.4885937 4291088900
1.9160475 -0.90325785 -0.48904356 4291088900
1.904242 -0.90542275 -0.48679405 4291088900
1.8991541 -0.91155291 -0.48634419 4291088900
1.9010615 -0.92105657 -0.48769391 4291088900
1.9048378 -0.93111008 -0.48949349 4291088900
1.9033239 -0.9386155 -0.48994341 4291088900
1.8897313 -0.93971568 -0.48724398 4291088900
1.8866047 -0.94597715 -0.48724398 4291088900
1.892153 -0.95662439 -0.48949349 4291088900
1.89037 -0.96443868 -0.48994341 4291088900
1.8954855 -0.97582066 -0.49219292 4291088900
1.8815202 -0.97737145 -0.48949349 4291088900
1.8748161 -0.98179734 -0.4885937 4291088900
1.8801666 -0.99255794 -0.49084321 4291088900
1.8818512 -1.0018622 -0.49219292 4291088900
1.8834931 -1.0111903 -0.49354258 4291088900
1.8765246 -1.0159032 -0.49264279 4291088900
1.8762091 -1.0246422 -0.49354258 4291088900
1.8777421 -1.0340052 -0.4948923 4291088900
1.8673065 -1.0367697 -0.49309272 4291088900
1.8585747 -1.0404258 -0.491743 4291088900
1.8379606 -1.0373287 -0.48724398 4291088900
1.8226533 -1.0366738 -0.48409468 4291088900
1.8173329 -1.0420604 -0.48364475 4291088900
1.8136843 -1.0483977 -0.48364475 4291088900
1.8131967 -1.057001 -0.48454455 4291088900
1.7878376 -1.0501767 -0.47869584 4291088900
2.1938612 -0.36712646 -0.4323732 4291088900
2.1718383 -0.37943709 -0.42855701 4291088900
2.1724336 -0.38736057 -0.42893866 4291088900
2.1787944 -0.3963469 -0.4304651 4291088900
2.1909101 -0.40645671 -0.43313646 4291088900
2.1971939 -0.41556129 -0.43466291 4291088900
2.1841631 -0.42099887 -0.4323732 4291088900
2.1826804 -0.42862046 -0.4323732 4291088900
2.1965721 -0.43931708 -0.43542615 4291088900
2.1911774 -0.44619834 -0.43466291 4291088900
2.1972964 -0.45543814 -0.43618938 4291088900
2.1803255 -0.45986405 -0.43313646 4291088900
2.1691089 -0.46541265 -0.43122834 4291088900
2.1713073 -0.47381854 -0.43199161 4291088900
2.1773067 -0.48309597 -0.43351805 4291088900
2.171777 -0.48982936 -0.43275481 4291088900
2.1623993 -0.49565279 -0.43122834 4291088900
2.1607437 -0.50282079 -0.43122834 4291088900
2.1551542 -0.50945687 -0.4304651 4291088900
2.1609988 -0.51880991 -0.43199161 4291088900
2.1590829 -0.5267269 -0.43199161 4291088900
2.1419854 -0.53048456 -0.42893866 4291088900
2.1401207 -0.53795826 -0.42893866 4291088900
2.1345203 -0.5440824 -0.42817542 4291088900
2.1364093 -0.55251306 -0.42893866 4291088900
2.1382658 -0.56096351 -0.42970186 4291088900
2.1287057 -0.56640482 -0.42817542 4291088900
2.1192334 -0.57141626 -0.42664891 4291088900
2.1209121 -0.58021587 -0.42741215 4291088900
2.1226578 -0.58866513 -0.42817542 4291088900
2.12815 -0.59819597 -0.42970186 4291088900
2.1109438 -0.60131806 -0.42664891 4291088900
2.1050594 -0.60759419 -0.42588571 4291088900
2.1105707 -0.6167742 -0.42741215 4291088900
2.112061 -0.62562096 -0.42817542 4291088900
2.1098642 -0.63298953 -0.42817542 4291088900
2.0964818 -0.6365602 -0.42588571 4291088900
2.0830996 -0.64004916 -0.42359596 4291088900
2.0922139 -0.65045053 -0.42588571 4291088900
2.0897012 -0.65847927 -0.42588571 4291088900
2.0911305 -0.66696286 -0.42664891 4291088900
2.07758 -0.67063957 -0.42435926 4291088900
2.0752263 -0.67788774 -0.42435926 4291088900
2.0728476 -0.68512738 -0.42435926 4291088900
2.0816145 -0.69609457 -0.42664891 4291088900
2.0717335 -0.70084006 -0.42512247 4291088900
2.0655594 -0.70679629 -0.42435926 4291088900
2.0593688 -0.71271783 -0.42359596 4291088900
2.0568683 -0.71990204 -0.42359596 4291088900
2.054343 -0.72707748 -0.42359596 4291088900
2.0591865 -0.73689008 -0.42512247 4291088900
2.0529096 -0.74273759 -0.42435926 4291088900
2.0466163 -0.74855024 -0.42359596 4291088900
2.0514894 -0.75805497 -0.42512247 4291088900
2.0451524 -0.76383758 -0.42435926 4291088900
2.0462821 -0.77200133 -0.42512247 4291088900
2.0435748 -0.7791394 -0.42512247 4291088900
2.0298502 -0.78203326 -0.42283276 4291088900
2.0306292 -0.79089278 -0.42359596 4291088900
2.0315101 -0.79941398 -0.42435926 4291088900
2.0360045 -0.80940151 -0.42588571 4291088900
2.0258799 -0.81357706 -0.42435926 4291088900
2.0230274 -0.82064378 -0.42435926 4291088900
2.0202951 -0.82734787 -0.42435926 4291088900
2.021023 -0.83589566 -0.42512247 4291088900
2.0217159 -0.84445852 -0.42588571 4291088900
2.0080502 -0.846582 -0.42359596 4291088900
2.0088449 -0.85477376 -0.42435926 4291088900
2.0058491 -0.86178076 -0.42435926 4291088900
2.0172372 -0.8750273 -0.42741215 4291088900
2.0068235 -0.87926352 -0.42588571 4291088900
2.0001516 -0.88467503 -0.42512247 4291088900
2.0006363 -0.89325219 -0.42588571 4291088900
2.001086 -0.90184361 -0.42664891 4291088900
1.9980843 -0.90847445 -0.42664891 4291088900
2.0020385 -0.91871899 -0.42817542 4291088900
1.9879696 -0.92109835 -0.42588571 4291088900
1.9847423 -0.9280321 -0.42588571 4291088900
1.9887565 -0.93795854 -0.42741215 4291088900
1.9890162 -0.9465822 -0.42817542 4291088900
1.9926118 -0.95726645 -0.42970186 4291088900
1.9786581 -0.95907825 -0.42741215 4291088900
1.9788258 -0.96770424 -0.42817542 4291088900
1.9771961 -0.97547424 -0.42855701 4291088900
1.972193 -0.9811511 -0.42817542 4291088900
1.9777027 -0.99208719 -0.43008351 4291088900
1.9638904 -0.9933235 -0.4277938 4291088900
1.9495707 -0.99549985 -0.42550406 4291088900
1.944164 -1.0017396 -0.42512247 4291088900
1.9371713 -1.0067092 -0.42435926 4291088900
1.923388 -1.0076611 -0.42206952 4291088900
1.9026757 -1.0048652 -0.41825336 4291088900
1.892225 -1.007809 -0.41672686 4291088900
1.8783183 -1.0088344 -0.41443717 4291088900
1.8642511 -1.0101002 -0.41214746 4291088900
1.8607138 -1.0166016 -0.41214746 4291088900
1.8399581 -1.0136174 -0.40833127 4291088900
1.8226784 -1.0124075 -0.40527833 4291088900
1.8157076 -1.0168451 -0.40451509 4291088900
1.8087279 -1.0212463 -0.40375188 4291088900
1.7983272 -1.0236689 -0.40222538 4291088900
1.7744871 -1.0179042 -0.39764598 4291088900
1.7605482 -1.0185025 -0.39535624 4291088900
1.7603743 -1.02662 -0.39611951 4291088900
1.7737048 -1.042708 -0.39993569 4291088900
2.1299756 -0.36523134 -0.34227866 4291088900
2.140986 -0.38252437 -0.34446874 4291088900
2.129921 -0.38822442 -0.34290439 4291088900
2.132437 -0.39637879 -0.34353012 4291088900
2.134922 -0.40455553 -0.34415585 4291088900
2.1451342 -0.41425267 -0.3460331 4291088900
2.151428 -0.42326331 -0.34728456 4291088900
2.1499372 -0.43077064 -0.34728456 4291088900
2.1522918 -0.43906239 -0.34791031 4291088900
2.1565483 -0.44777739 -0.34884888 4291088900
2.1646357 -0.45734408 -0.35041323 4291088900
2.1668887 -0.46572757 -0.35103899 4291088900
2.1652498 -0.4732886 -0.35103899 4291088900
2.1712978 -0.48255804 -0.35229045 4291088900
2.179234 -0.49231073 -0.35385481 4291088900
2.1852913 -0.50130141 -0.35510629 4291088900
2.1950707 -0.51161677 -0.35698348 4291088900
2.1875048 -0.51791048 -0.35604486 4291088900
2.1895251 -0.52646685 -0.35667065 4291088900
2.2029319 -0.538239 -0.35917357 4291088900
2.2202129 -0.55068094 -0.36230227 4291088900
2.2241213 -0.55948609 -0.36324087 4291088900
2.2049289 -0.56284904 -0.36042506 4291088900
2.2048628 -0.57103753 -0.36073789 4291088900
2.2200513 -0.5832479 -0.36355373 4291088900
2.2352846 -0.59518099 -0.36636955 4291088900
2.2217512 -0.59989041 -0.36449236 4291088900
2.2042959 -0.60385424 -0.36198941 4291088900
2.2231116 -0.61735916 -0.36543098 4291088900
2.224746 -0.62618583 -0.36605671 4291088900
2.2130487 -0.63123876 -0.36449236 4291088900
2.2147386 -0.63967013 -0.36511809 4291088900
2.1954296 -0.6424045 -0.36230227 4291088900
2.2082105 -0.65494037 -0.36480519 4291088900
2.1983438 -0.6603713 -0.36355373 4291088900
2.2037015 -0.66995585 -0.36480519 4291088900
2.19958 -0.67667913 -0.36449236 4291088900
2.1878934 -0.68103397 -0.362928 4291088900
2.1890299 -0.69061857 -0.36355373 4291088900
2.1866059 -0.69825542 -0.36355373 4291088900
2.1897943 -0.70770627 -0.36449236 4291088900
2.1798003 -0.71288961 -0.36324087 4291088900
2.1754231 -0.71987361 -0.362928 4291088900
2.1560383 -0.7218188 -0.36011216 4291088900
2.1703446 -0.73504329 -0.362928 4291088900
2.1621592 -0.74069422 -0.36198941 4291088900
2.1576939 -0.74759024 -0.36167651 4291088900
2.1550713 -0.75511748 -0.36167651 4291088900
2.1468363 -0.76065636 -0.36073789 4291088900
2.1497469 -0.77014416 -0.36167651 4291088900
2.154475 -0.78033441 -0.362928 4291088900
2.1518755 -0.78747457 -0.362928 4291088900
2.1379974 -0.79086924 -0.36105078 4291088900
2.1409142 -0.80002916 -0.36198941 4291088900
2.1381085 -0.80749744 -0.36198941 4291088900
2.135277 -0.81495589 -0.36198941 4291088900
2.1397913 -0.82524776 -0.36324087 4291088900
2.1275499 -0.82949704 -0.36167651 4291088900
2.120966 -0.83547062 -0.36105078 4291088900
2.1290488 -0.84725142 -0.362928 4291088900
2.1279111 -0.85541481 -0.36324087 4291088900
2.1285729 -0.86432385 -0.36386663 4291088900
2.1129005 -0.8661328 -0.36167651 4291088900
2.1116896 -0.87425864 -0.36198941 4291088900
2.1177375 -0.88543451 -0.36355373 4291088900
2.1220691 -0.89552432 -0.36480519 4291088900
2.115453 -0.90100837 -0.36417946 4291088900
2.1050365 -0.90526557 -0.362928 4291088900
2.1091115 -0.91575485 -0.36417946 4291088900
2.116595 -0.92823923 -0.36605671 4291088900
2.1169548 -0.93722123 -0.36668244 4291088900
2.1046529 -0.94057518 -0.36511809 4291088900
2.0815496 -0.93898106 -0.36167651 4291088900
2.0712328 -0.94260567 -0.36042506 4291088900
2.0573242 -0.94452381 -0.35854784 4291088900
2.068186 -0.95870405 -0.36105078 4291088900
2.0539234 -0.96125388 -0.35917357 4291088900
2.0239294 -0.95541084 -0.35448053 4291088900
2.0082653 -0.956173 -0.35229045 4291088900
2.0136492 -0.9678058 -0.35385481 4291088900
2.0012023 -0.97086859 -0.35229045 4291088900
1.9853814 -0.97176909 -0.35010037 4291088900
1.9678078 -0.9716965 -0.34759742 4291088900
1.9539646 -0.97293365 -0.3457202 4291088900
1.9454314 -0.97674888 -0.34478158 4291088900
1.935132 -0.979626 -0.34353012 4291088900
1.9332879 -0.98761082 -0.34384301 4291088900
1.9103409 -0.984734 -0.34040144 4291088900
1.8944515 -0.98534864 -0.33821136 4291088900
1.8789271 -0.9852041 -0.33602124 4291088900
1.8756497 -0.99142939 -0.33602124 4291088900
1.8617185 -0.99239552 -0.33414406 4291088900
1.835624 -0.9867292 -0.33007675 4291088900
1.8233128 -0.98874229 -0.32851243 4291088900
1.8250499 -0.99794388 -0.32945102 4291088900
1.8180953 -1.0024008 -0.32882527 4291088900
1.8007733 -1.0010629 -0.32632235 4291088900
1.7886521 -1.0025135 -0.32475799 4291088900
1.7679436 -0.99903274 -0.32162929 4291088900
1.7560381 -1.0000024 -0.32006493 4291088900
1.7508237 -1.0051425 -0.3197521 4291088900
1.7471279 -1.0115528 -0.3197521 4291088900
2.0784142 -0.36461064 -0.25909427 4291088900
2.0914407 -0.38196483 -0.26104417 4291088900
2.1057067 -0.39217064 -0.26299405 4291088900
2.0809219 -0.39507535 -0.26006919 4291088900
2.0834279 -0.40309083 -0.26055667 4291088900
2.0975893 -0.41343191 -0.26250657 4291088900
2.1000259 -0.42153266 -0.26299405 4291088900
2.1102111 -0.43124539 -0.26445648 4291088900
2.100919 -0.43699178 -0.26348156 4291088900
2.0993807 -0.44432268 -0.26348156 4291088900
2.1114013 -0.45457283 -0.26518771 4291088900
2.1233757 -0.46491221 -0.26689389 4291088900
2.1217399 -0.47232136 -0.26689389 4291088900
2.1123338 -0.47797236 -0.26591894 4291088900
2.122345 -0.48764154 -0.26738134 4291088900
2.1264296 -0.4964008 -0.26811257 4291088900
2.1439989 -0.50840056 -0.27054995 4291088900
2.1480012 -0.51727569 -0.27128118 4291088900
2.1403973 -0.52335596 -0.27054995 4291088900
2.1442447 -0.53263313 -0.27128118 4291088900
2.1540163 -0.5426504 -0.27274361 4291088900
2.159802 -0.55213273 -0.27371857 4291088900
2.1559401 -0.55917007 -0.27347484 4291088900
2.1578145 -0.56770241 -0.27396232 4291088900
2.1597562 -0.57587773 -0.2744498 4291088900
2.1634815 -0.58496755 -0.275181 4291088900
2.1729133 -0.59566486 -0.27664346 4291088900
2.1764531 -0.60522044 -0.27737463 4291088900
2.1743271 -0.61281407 -0.27737463 4291088900
2.1740835 -0.62094527 -0.27761838 4291088900
2.1834543 -0.63146037 -0.27908084 4291088900
2.1888566 -0.64131081 -0.28005576 4291088900
2.2056353 -0.65459532 -0.28249314 4291088900
2.1938314 -0.65943325 -0.28127447 4291088900
2.1992295 -0.66901565 -0.28224945 4291088900
2.2083821 -0.67980897 -0.28371185 4291088900
2.2250686 -0.69303167 -0.28614923 4291088900
2.2241616 -0.70255595 -0.28639299 4291088900
2.2216954 -0.71031547 -0.28639299 4291088900
2.2267573 -0.72051078 -0.28736794 4291088900
2.235548 -0.73198551 -0.28883037 4291088900
2.2480543 -0.74477887 -0.29078028 4291088900
2.2548516 -0.75577587 -0.29199898 4291088900
2.2484398 -0.76236725 -0.29151151 4291088900
2.2363765 -0.76699132 -0.2902928 4291088900
2.2599418 -0.78390044 -0.29370514 4291088900
2.2628114 -0.79375565 -0.29443637 4291088900
2.261898 -0.80231309 -0.29468012 4291088900
2.2553461 -0.8088634 -0.29419261 4291088900
2.2525091 -0.8167311 -0.29419261 4291088900
2.2572443 -0.8269276 -0.2951676 4291088900
2.2562056 -0.83549118 -0.29541129 4291088900
2.2552817 -0.84366393 -0.29565504 4291088900
2.2411819 -0.84731907 -0.29419261 4291088900
2.2456284 -0.85797107 -0.2951676 4291088900
2.240768 -0.8650896 -0.29492384 4291088900
2.2395837 -0.87362748 -0.2951676 4291088900
2.2363667 -0.88183016 -0.2951676 4291088900
2.2222099 -0.88522333 -0.29370514 4291088900
2.2080569 -0.88852865 -0.29224271 4291088900
2.204942 -0.89623082 -0.29224271 4291088900
2.2037942 -0.90429127 -0.29248646 4291088900
2.1914551 -0.90817863 -0.29126775 4291088900
2.164624 -0.90548176 -0.28809914 4291088900
2.1378355 -0.90261734 -0.28493056 4291088900
2.1547585 -0.91863805 -0.28761166 4291088900
2.1387753 -0.92065966 -0.28590551 4291088900
2.1173429 -0.9202075 -0.28346813 4291088900
2.092304 -0.91802168 -0.28054324 4291088900
2.0834804 -0.92327142 -0.27981204 4291088900
2.0693729 -0.92567521 -0.27834961 4291088900
2.0608637 -0.93008256 -0.27761838 4291088900
2.0523481 -0.93444383 -0.27688718 4291088900
2.0292323 -0.93248463 -0.27420604 4291088900
2.0095944 -0.93239641 -0.27201241 4291088900
1.9973388 -0.93519676 -0.27079371 4291088900
1.9906366 -0.94011962 -0.27030623 4291088900
1.9765908 -0.94193864 -0.2688438 4291088900
1.9570254 -0.941432 -0.26665017 4291088900
1.9428474 -0.94339591 -0.26518771 4291088900
1.9395425 -0.95017201 -0.26518771 4291088900
1.9274822 -0.95220244 -0.26396903 4291088900
1.9154296 -0.95416331 -0.26275033 4291088900
1.898064 -0.95338184 -0.26080042 4291088900
1.8824955 -0.95339251 -0.25909427 4291088900
1.8735186 -0.95790273 -0.25836304 4291088900
1.869995 -0.96476305 -0.25836304 4291088900
1.85605 -0.96578687 -0.25690058 4291088900
1.835258 -0.96271503 -0.2544632 4291088900
1.8160944 -0.96076095 -0.25226957 4291088900
1.8057238 -0.96335685 -0.25129461 4291088900
1.8040984 -0.9705947 -0.25153834 4291088900
1.7954646 -0.97404647 -0.25080714 4291088900
1.7727274 -0.97013766 -0.248126 4291088900
1.765854 -0.97440171 -0.24763852 4291088900
1.7555033 -0.97669941 -0.24666359 4291088900
1.7538146 -0.98379236 -0.24690731 4291088900
1.745186 -0.98697668 -0.24617608 4291088900
1.7315557 -0.98686099 -0.24471366 4291088900
2.0585363 -0.38375729 -0.18320136 4291088900
2.0885019 -0.39689213 -0.18599035 4291088900
2.0602691 -0.40644971 -0.1837243 4291088900
2.0529776 -0.41246155 -0.18320136 4291088900
2.0573812 -0.42082307 -0.1837243 4291088900
2.0578504 -0.42840818 -0.18389861 4291088900
2.0875289 -0.44219497 -0.1866876 4291088900
2.0528617 -0.44234446 -0.1837243 4291088900
2.0629826 -0.45206648 -0.18477017 4291088900
2.0691705 -0.46099794 -0.18546741 4291088900
2.0830944 -0.47173831 -0.1868619 4291088900
2.0775518 -0.47811317 -0.18651329 4291088900
2.0759549 -0.48499995 -0.18651329 4291088900
2.0781264 -0.49316344 -0.1868619 4291088900
2.0821154 -0.50217831 -0.18738484 4291088900
2.0977669 -0.51370829 -0.18895365 4291088900
2.1075621 -0.52391165 -0.18999951 4291088900
2.0902653 -0.52736598 -0.18860501 4291088900
2.094296 -0.53577608 -0.18912795 4291088900
2.0981984 -0.54458487 -0.18965089 4291088900
2.1155522 -0.5569784 -0.191394 4291088900
2.1289942 -0.56847155 -0.1927885 4291088900
2.1077659 -0.5706926 -0.19104539 4291088900
2.1230526 -0.5827933 -0.19261418 4291088900
2.1306028 -0.59287119 -0.19348574 4291088900
2.138108 -0.60300881 -0.19435729 4291088900
2.1436529 -0.61265856 -0.19505455 4291088900
2.1357601 -0.61847502 -0.19453162 4291088900
2.1450591 -0.62929177 -0.19557749 4291088900
2.1543083 -0.64018059 -0.19662334 4291088900
2.157784 -0.64941937 -0.19714628 4291088900
2.1651485 -0.6594739 -0.19801784 4291088900
2.1610458 -0.66606325 -0.19784354 4291088900
2.1626294 -0.67441225 -0.19819216 4291088900
2.1771214 -0.68811518 -0.19976096 4291088900
2.1898875 -0.70056707 -0.20115545 4291088900
2.1969063 -0.71127552 -0.20202701 4291088900
2.1906233 -0.71769911 -0.20167838 4291088900
2.1862135 -0.72471458 -0.20150407 4291088900
2.2044494 -0.73931009 -0.2034215 4291088900
2.2112892 -0.75020117 -0.20429306 4291088900
2.2199643 -0.76179546 -0.20533893 4291088900
2.1909399 -0.76039433 -0.20289856 4291088900
2.193912 -0.77001697 -0.2034215 4291088900
2.2268863 -0.79033184 -0.20673342 4291088900
2.237241 -0.80281073 -0.2079536 4291088900
2.2475357 -0.81537157 -0.20917378 4291088900
2.2203584 -0.81429386 -0.20690772 4291088900
2.2251191 -0.82442129 -0.20760499 4291088900
2.2446179 -0.84056801 -0.20969671 4291088900
2.2511358 -0.85153133 -0.21056828 4291088900
2.2425663 -0.85724986 -0.21004534 4291088900
2.237551 -0.86474538 -0.20987104 4291088900
2.2048244 -0.8609553 -0.20708205 4291088900
2.2166324 -0.87449569 -0.20847654 4291088900
2.19876 -0.87632668 -0.20708205 4291088900
2.184598 -0.87953186 -0.20603617 4291088900
2.1593673 -0.87814546 -0.20394444 4291088900
2.1453848 -0.88076144 -0.20289856 4291088900
2.1330953 -0.88442928 -0.20202701 4291088900
2.1226437 -0.88879174 -0.20132977 4291088900
2.1123438 -0.89272344 -0.20063251 4291088900
2.0873802 -0.89034307 -0.19854078 4291088900
2.0659604 -0.88974309 -0.19679767 4291088900
2.0608585 -0.89651448 -0.19662334 4291088900
2.0613649 -0.90530497 -0.19697197 4291088900
2.0436213 -0.90603495 -0.19557749 4291088900
2.0131669 -0.90095478 -0.1929628 4291088900
2.0045629 -0.90551603 -0.19243988 4291088900
1.9870452 -0.90554863 -0.19104539 4291088900
1.9766314 -0.90914887 -0.19034813 4291088900
1.9624439 -0.91135257 -0.18930228 4291088900
1.9430138 -0.91058767 -0.18773346 4291088900
1.9273746 -0.91106582 -0.18651329 4291088900
1.9241827 -0.91778809 -0.18651329 4291088900
1.9136252 -0.92137694 -0.18581605 4291088900
1.9050211 -0.92543948 -0.18529311 4291088900
1.8856772 -0.92419183 -0.1837243 4291088900
1.8681519 -0.92370391 -0.1823298 4291088900
1.8668616 -0.93078285 -0.18250412 4291088900
1.8619846 -0.93607354 -0.1823298 4291088900
1.8446535 -0.93503654 -0.18093532 4291088900
1.8233128 -0.93303627 -0.1791922 4291088900
1.8145701 -0.93697053 -0.17866927 4291088900
1.807754 -0.94145823 -0.17832063 4291088900
1.8028581 -0.9465217 -0.17814633 4291088900
1.7961876 -0.95063102 -0.17779772 4291088900
1.7717657 -0.94563746 -0.17570597 4291088900
1.7612709 -0.94834661 -0.17500873 4291088900
1.7456932 -0.94783413 -0.17378855 4291088900
1.7493645 -0.95774895 -0.17448579 4291088900
1.7355452 -0.9580723 -0.17343993 4291088900
2.0192173 -0.41375127 -0.10802142 4291088900
2.0138502 -0.41998163 -0.10781208 4291088900
2.0264876 -0.43740171 -0.10864946 4291088900
2.0210466 -0.44361642 -0.10844011 4291088900
2.0019422 -0.44675335 -0.10749806 4291088900
2.0217962 -0.45859867 -0.10864946 4291088900
2.0124788 -0.46350756 -0.10823077 4291088900
2.0322406 -0.47553524 -0.10938216 4291088900
2.0344546 -0.48354989 -0.10959151 4291088900
2.0288713 -0.48971128 -0.10938216 4291088900
2.0367618 -0.49952286 -0.10990552 4291088900
2.0311296 -0.50566447 -0.10969618 4291088900
2.0546157 -0.51875317 -0.11105692 4291088900
2.0566618 -0.52691329 -0.11126626 4291088900
2.0470779 -0.5320794 -0.11084756 4291088900
2.0529335 -0.54125851 -0.11126626 4291088900
2.0549862 -0.5490945 -0.1114756 4291088900
2.0646236 -0.55939835 -0.11210363 4291088900
2.0741141 -0.57013798 -0.11273166 4291088900
2.0644157 -0.57523024 -0.11231297 4291088900
2.0700834 -0.58460408 -0.11273166 4291088900
2.077631 -0.59457403 -0.11325502 4291088900
2.0871582 -0.60479575 -0.11388306 4291088900
2.0926998 -0.61432779 -0.11430173 4291088900
2.082777 -0.61971551 -0.11388306 4291088900
2.0920751 -0.6304397 -0.11451109 4291088900
2.0976143 -0.63970405 -0.11492977 4291088900
2.1050236 -0.64960116 -0.11545313 4291088900
2.1066709 -0.65776867 -0.11566247 4291088900
2.1003213 -0.66464764 -0.11545313 4291088900
2.109401 -0.67563051 -0.11608116 4291088900
2.1165295 -0.68606889 -0.11660452 4291088900
2.1217129 -0.69594264 -0.11702321 4291088900
2.1268532 -0.70586109 -0.1174419 4291088900
2.1243763 -0.71328092 -0.1174419 4291088900
2.1275468 -0.722619 -0.1177559 4291088900
2.1363447 -0.73393458 -0.11838394 4291088900
2.143203 -0.74466503 -0.1189073 4291088900
2.1462436 -0.7541278 -0.11922132 4291088900
2.1454804 -0.76228374 -0.119326 4291088900
2.1465657 -0.77111876 -0.11953534 4291088900
2.1513698 -0.78133404 -0.11995402 4291088900
2.1693923 -0.79603219 -0.12110542 4291088900
2.1797085 -0.80846184 -0.12183812 4291088900
2.1676643 -0.81218171 -0.12131476 4291088900
2.1685517 -0.82115787 -0.1215241 4291088900
2.1656721 -0.82872254 -0.1215241 4291088900
2.1683545 -0.83843797 -0.12183812 4291088900
2.1578262 -0.84347135 -0.12141944 4291088900
2.1325769 -0.84219491 -0.12016336 4291088900
2.1129286 -0.84297293 -0.11922132 4291088900
2.1025631 -0.84735709 -0.11880264 4291088900
2.1051421 -0.85695028 -0.11911664 4291088900
2.0985942 -0.86240816 -0.1189073 4291088900
2.0642111 -0.856713 -0.11712788 4291088900
2.0556822 -0.86159724 -0.11681387 4291088900
2.0436163 -0.86451864 -0.11629051 4291088900
2.0297172 -0.8665852 -0.11566247 4291088900
2.0193436 -0.87050247 -0.11524379 4291088900
1.9979794 -0.8695755 -0.11419707 4291088900
1.9856369 -0.87287396 -0.11367371 4291088900
1.9752755 -0.8765592 -0.11325502 4291088900
1.9612674 -0.87854999 -0.11262699 4291088900
1.9563687 -0.8845678 -0.11252232 4291088900
1.9388875 -0.88441938 -0.11168494 4291088900
1.9267174 -0.88700598 -0.11116158 4291088900
1.9035305 -0.88480121 -0.11001018 4291088900
1.8895812 -0.88635123 -0.10938216 4291088900
1.888437 -0.89346671 -0.10948683 4291088900
1.8618754 -0.88886684 -0.10812609 4291088900
1.849609 -0.89134973 -0.10760273 4291088900
1.8464863 -0.89780062 -0.10760273 4291088900
1.8343754 -0.8998425 -0.10707937 4291088900
1.8312231 -0.90624022 -0.10707937 4291088900
1.8067627 -0.90160626 -0.10582332 4291088900
1.7966266 -0.90400189 -0.10540463 4291088900
1.7936189 -0.90995479 -0.10540463 4291088900
1.788334 -0.91592461 -0.10529996 4291088900
1.7743189 -0.91697109 -0.10467192 4291088900
1.7516252 -0.91300434 -0.10352053 4291088900
1.7415159 -0.91509181 -0.10310185 4291088900
1.7455313 -0.92460144 -0.10352053 4291088900
1.7352468 -0.92692465 -0.10310185 4291088900
2.0397828 -0.46305287 -0.036510434 4291088900
2.001132 -0.46162984 -0.035847243 4291088900
1.990079 -0.47373664 -0.035707623 4291088900
1.992301 -0.48162028 -0.035777435 4291088900
2.0022597 -0.49143162 -0.035986863 4291088900
1.9966513 -0.49745095 -0.035917051 4291088900
2.0026574 -0.50637835 -0.036056671 4291088900
2.0047519 -0.51435983 -0.036126483 4291088900
2.0145552 -0.52437681 -0.036335908 4291088900
2.0321405 -0.53615588 -0.036684956 4291088900
2.0148029 -0.53911114 -0.036405724 4291088900
2.0167687 -0.54718798 -0.036475532 4291088900
2.0264146 -0.5574066 -0.036684956 4291088900
2.0359149 -0.56805462 -0.036894388 4291088900
2.0377679 -0.57624608 -0.036964197 4291088900
2.0358458 -0.58300036 -0.036964197 4291088900
2.0376396 -0.59121782 -0.037034009 4291088900
2.0470746 -0.60171038 -0.037243433 4291088900
2.0564611 -0.61227614 -0.037452865 4291088900
2.0543113 -0.61945075 -0.037452865 4291088900
2.0484207 -0.62509239 -0.037383057 4291088900
2.0539792 -0.6342417 -0.037522674 4291088900
2.0594993 -0.64343482 -0.03766229 4291088900
2.0683377 -0.65532082 -0.037871722 4291088900
2.0736547 -0.66497922 -0.038011342 4291088900
2.0713205 -0.67221361 -0.038011342 4291088900
2.0727611 -0.68068755 -0.038081151 4291088900
2.0817585 -0.69170189 -0.038290579 4291088900
2.0869131 -0.70151305 -0.038430199 4291088900
2.0920246 -0.7113685 -0.038569819 4291088900
2.085747 -0.71736598 -0.038500007 4291088900
2.0870073 -0.72595614 -0.038569819 4291088900
2.0920064 -0.73589098 -0.038709439 4291088900
2.1044974 -0.74855018 -0.03898868 4291088900
2.1131618 -0.75995189 -0.039198104 4291088900
2.11063 -0.7669552 -0.039198104 4291088900
2.10794 -0.77431804 -0.039198104 4291088900
2.118484 -0.78617394 -0.039442439 4291088900
2.1250887 -0.79707557 -0.039616965 4291088900
2.127903 -0.806615 -0.039721675 4291088900
2.1250741 -0.8140378 -0.039721675 4291088900
2.1240849 -0.8221727 -0.039756581 4291088900
2.1100278 -0.82521206 -0.039547153 4291088900
2.0995507 -0.82999951 -0.039407536 4291088900
2.0817838 -0.83139008 -0.039128296 4291088900
2.0566154 -0.82967418 -0.038709439 4291088900
2.0462992 -0.83382964 -0.038569819 4291088900
2.0324271 -0.83604646 -0.038360391 4291088900
2.0258029 -0.84160149 -0.038290579 4291088900
2.0082481 -0.84212828 -0.038011342 4291088900
1.9943949 -0.84410661 -0.037801914 4291088900
1.9730482 -0.84320492 -0.037452865 4291088900
1.9700929 -0.85008699 -0.037452865 4291088900
1.9597802 -0.853764 -0.037313245 4291088900
1.9531274 -0.85898966 -0.037243433 4291088900
1.9243807 -0.85477799 -0.036754768 4291088900
1.9104369 -0.85658127 -0.03654534 4291088900
1.9039421 -0.86126357 -0.036475532 4291088900
1.8937986 -0.86425149 -0.036335908 4291088900
1.8835051 -0.86751068 -0.036196291 4291088900
1.8658069 -0.86766249 -0.035917051 4291088900
1.8555261 -0.87077212 -0.035777435 4291088900
1.8453984 -0.87349832 -0.035637815 4291088900
1.8315114 -0.87476355 -0.035428386 4291088900
1.828293 -0.88147056 -0.035428386 4291088900
1.8070689 -0.87941515 -0.035079334 4291088900
1.7986034 -0.88307381 -0.034974623 4291088900
1.7831205 -0.88282251 -0.034730289 4291088900
1.7819723 -0.88962382 -0.034765195 4291088900
1.7825847 -0.89732641 -0.034835003 4291088900
1.7671171 -0.89689749 -0.034590669 4291088900
1.9943849 -0.52247304 0.035986863 4291088900
1.9869205 -0.53499633 0.035917051 4291088900
1.9773248 -0.53982216 0.035777435 4291088900
1.9714783 -0.54599828 0.035707623 4291088900
1.9811121 -0.55611932 0.035917051 4291088900
1.9868523 -0.56522 0.036056671 4291088900
1.9964966 -0.57512683 0.0362661 4291088900
1.9867985 -0.57985145 0.036126483 4291088900
1.9885975 -0.58791697 0.036196291 4291088900
1.9979229 -0.59864551 0.036405724 4291088900
2.0112355 -0.60990989 0.036684956 4291088900
2.0130255 -0.61774945 0.036754768 4291088900
2.0109661 -0.62442154 0.036754768 4291088900
2.0009236 -0.62973714 0.036615148 4291088900
2.0139561 -0.64157367 0.036894388 4291088900
2.0231235 -0.65228146 0.037103817 4291088900
2.0341418 -0.66368133 0.037348151 4291088900
2.0280149 -0.66952407 0.037278343 4291088900
2.0275619 -0.6772325 0.037313245 4291088900
2.0384471 -0.6887868 0.03755758 4291088900
2.0473838 -0.69977862 0.037767008 4291088900
2.0487084 -0.70822781 0.03783682 4291088900
2.0462239 -0.71537489 0.03783682 4291088900
2.0474851 -0.72384614 0.037906628 4291088900
2.0524778 -0.73368126 0.038046245 4291088900
2.0649493 -0.74627852 0.038325485 4291088900
2.0680985 -0.75517976 0.038430199 4291088900
2.057946 -0.75962442 0.038290579 4291088900
2.0704048 -0.77203399 0.038569819 4291088900
2.0789249 -0.78348762 0.038779248 4291088900
2.083652 -0.79358667 0.038918864 4291088900
2.0808694 -0.80085504 0.038918864 4291088900
2.0575602 -0.80014139 0.038534917 4291088900
2.037864 -0.80109286 0.038220771 4291088900
2.0387723 -0.80967772 0.038290579 4291088900
2.0247982 -0.81232196 0.038081151 4291088900
2.0219502 -0.81938499 0.038081151 4291088900
1.9933107 -0.81548488 0.037592482 4291088900
1.9793633 -0.81785613 0.037383057 4291088900
1.9691143 -0.82168007 0.037243433 4291088900
1.9590073 -0.8251006 0.037103817 4291088900
1.9488988 -0.82846302 0.036964197 4291088900
1.9202691 -0.82421881 0.036475532 4291088900
1.913711 -0.82932663 0.036405724 4291088900
1.9034761 -0.83279544 0.0362661 4291088900
1.9040691 -0.84138286 0.036335908 4291088900
1.8865104 -0.84150708 0.036056671 4291088900
1.861681 -0.83823532 0.035637815 4291088900
1.8516085 -0.84109616 0.035498194 4291088900
1.8451734 -0.8455655 0.035428386 4291088900
1.8348023 -0.84896374 0.035288766 4291088900
1.828055 -0.85399026 0.035218958 4291088900
1.799888 -0.84811431 0.034730289 4291088900
1.8006777 -0.85579509 0.034800097 4291088900
1.8065437 -0.86671406 0.034974623 4291088900
1.9934709 -0.59769076 0.10906815 4291088900
1.9722794 -0.60562211 0.10812609 4291088900
1.9759823 -0.61393702 0.10844011 4291088900
1.9830265 -0.62486535 0.10896347 4291088900
1.9770275 -0.63056988 0.10875413 4291088900
1.9710132 -0.63624001 0.10854478 4291088900
1.9915626 -0.65055829 0.10980085 4291088900
1.9968652 -0.66001332 0.11021954 4291088900
2.0021257 -0.66951334 0.11063822 4291088900
1.9959925 -0.67521793 0.11042888 4291088900
2.0049617 -0.68606085 0.11105692 4291088900
2.0063295 -0.69436169 0.11126626 4291088900
2.0189745 -0.70663923 0.11210363 4291088900
2.020261 -0.71501523 0.11231297 4291088900
2.0177531 -0.72206289 0.11231297 4291088900
2.0153475 -0.72874999 0.11231297 4291088900
2.0240464 -0.73989475 0.112941 4291088900
2.0272026 -0.74867851 0.11325502 4291088900
2.0489016 -0.76483035 0.11461575 4291088900
2.036876 -0.7684527 0.11409239 4291088900
2.0379136 -0.776981 0.11430173 4291088900
2.0389166 -0.78552616 0.11451109 4291088900
2.0231335 -0.78756666 0.11377838 4291088900
2.0109408 -0.79131979 0.11325502 4291088900
1.9896064 -0.7909562 0.1122083 4291088900
1.9682995 -0.79045331 0.11116158 4291088900
1.9618268 -0.79581767 0.11095224 4291088900
1.9554806 -0.80080515 0.1107429 4291088900
1.9452906 -0.80457264 0.1103242 4291088900
1.924181 -0.8033244 0.10927749 4291088900
1.9104636 -0.80504745 0.10864946 4291088900
1.8966148 -0.80701929 0.10802142 4291088900
1.8901162 -0.81205803 0.10781208 4291088900
1.8836052 -0.81706107 0.10760273 4291088900
1.8642761 -0.81642038 0.10666069 4291088900
1.8466587 -0.81678456 0.10582332 4291088900
2.0052044 -0.71796709 0.18633896 4291088900
1.9795622 -0.72441685 0.18442155 4291088900
1.9734111 -0.72959536 0.18407291 4291088900
1.972719 -0.73717695 0.18424724 4291088900
1.9982238 -0.75426888 0.1868619 4291088900
2.0030251 -0.76407975 0.18755916 4291088900
1.9929092 -0.76820052 0.1868619 4291088900
1.9733726 -0.76898897 0.18529311 4291088900
1.9725299 -0.77660251 0.18546741 4291088900
1.9549963 -0.7775923 0.18407291 4291088900
