# .PCD v0.7 - Point Cloud Data file format
VERSION 0.7
FIELDS x y z rgb
SIZE 4 4 4 4
TYPE F F F U
COUNT 1 1 1 1
WIDTH 825
HEIGHT 1
VIEWPOINT 0 0 0 1 0 0 0
POINTS 825
DATA ascii
2.1301665 -0.36411604 -0.34227866 4289161489
2.1059806 -0.36831003 -0.26250657 4289161489
2.1687706 -0.38553584 -0.42817542 4289161489
2.141186 -0.38140327 -0.34446874 4289161489
2.0597353 -0.36763659 -0.25690058 4289161489
2.1751382 -0.39450532 -0.42970186 4289161489
2.1417851 -0.38922831 -0.34478158 4289161489
2.0721104 -0.37731352 -0.25860679 4289161489
2.1872613 -0.40459523 -0.4323732 4289161489
2.1346557 -0.39524966 -0.34384301 4289161489
2.0942693 -0.38852796 -0.26153165 4289161489
2.097914 -0.38996166 -0.1866876 4289161489
2.1027901 -0.39580604 -0.49399251 4289161489
2.1859076 -0.41184625 -0.4323732 4289161489
2.1313217 -0.40233216 -0.34353012 4289161489
2.1085045 -0.39878723 -0.26348156 4289161489
2.0711603 -0.39209861 -0.18442155 4289161489
2.1960249 -0.42169538 -0.43466291 4289161489
2.1415434 -0.41200861 -0.34540737 4289161489
2.0856581 -0.40201199 -0.26080042 4289161489
2.1018882 -0.41085041 -0.49444243 4289161489
2.1829791 -0.42709661 -0.4323732 4289161489
2.1536615 -0.42214125 -0.34759742 4289161489
2.0861902 -0.40967235 -0.26104417 4289161489
2.0742373 -0.40770113 -0.1849445 4289161489
2.1119084 -0.42046785 -0.49714181 4289161489
2.1853259 -0.43548137 -0.43313646 4289161489
2.1521747 -0.42965636 -0.34759742 4289161489
2.0983732 -0.41967717 -0.26275033 4289161489
2.0591259 -0.41220146 -0.1837243 4289161489
2.1123378 -0.4282245 -0.49759173 4289161489
2.1876407 -0.44388774 -0.4338997 4289161489
2.1525977 -0.43755969 -0.34791031 4289161489
2.1066213 -0.42897981 -0.26396903 4289161489
2.0576744 -0.41938663 -0.1837243 4289161489
2.0371172 -0.41593742 -0.10896347 4289161489
2.0993791 -0.43323219 -0.4948923 4289161489
2.189923 -0.45231557 -0.43466291 4289161489
2.1510572 -0.44507098 -0.34791031 4289161489
2.1089985 -0.4371365 -0.26445648 4289161489
2.073756 -0.43020916 -0.18529311 4289161489
2.0278311 -0.42142025 -0.10854478 4289161489
2.095947 -0.44015729 -0.49444243 4289161489
2.1921732 -0.46076468 -0.43542615 4289161489
2.1591556 -0.45461187 -0.34947464 4289161489
2.1055176 -0.44408593 -0.26421279 4289161489
2.0663934 -0.43621075 -0.18477017 4289161489
2.1001148 -0.44869223 -0.49579209 4289161489
2.1732731 -0.46471927 -0.43199161 4289161489
2.1652815 -0.46380091 -0.3507261 4289161489
2.1039546 -0.45143288 -0.26421279 4289161489
2.068754 -0.4442578 -0.18511879 4289161489
2.0209346 -0.43472677 -0.10833544 4289161489
2.0985358 -0.45602027 -0.49579209 4289161489
2.1754744 -0.47313702 -0.43275481 4289161489
2.17523 -0.47387919 -0.35260335 4289161489
2.1101236 -0.46046713 -0.26518771 4289161489
2.0632975 -0.45062616 -0.18477017 4289161489
2.0135515 -0.44049799 -0.10802142 4289161489
2.098834 -0.46376327 -0.49624202 4289161489
2.1699758 -0.47988012 -0.43199161 4289161489
2.1677768 -0.48018762 -0.35166472 4289161489
2.1143172 -0.46912003 -0.26591894 4289161489
2.0675471 -0.45912141 -0.18529311 4289161489
2.0256488 -0.45055944 -0.10875413 4289161489
2.0876956 -0.46895126 -0.49399251 4289161489
2.1721184 -0.48831308 -0.43275481 4289161489
2.1641603 -0.48731765 -0.35135183 4289161489
2.1242855 -0.47911802 -0.26738134 4289161489
2.0737057 -0.46809042 -0.18599035 4289161489
2.0084789 -0.45410389 -0.10791675 4289161489
2.0712297 -0.46905145 -0.037068911 4289161489
2.0784466 -0.47450089 -0.49219292 4289161489
2.1704006 -0.4958922 -0.43275481 4289161489
2.1797767 -0.49883509 -0.35416767 4289161489
2.1167955 -0.48519978 -0.26665017 4289161489
2.0973043 -0.4811174 -0.1882564 4289161489
2.0166142 -0.46334827 -0.10844011 4289161489
2.0150146 -0.46372131 -0.036091577 4289161489
2.0862694 -0.48395494 -0.49444243 4289161489
2.157182 -0.50080144 -0.4304651 4289161489
2.1972625 -0.51091474 -0.35729638 4289161489
2.126689 -0.49528733 -0.26811257 4289161489
2.0975528 -0.4888877 -0.18843071 4289161489
2.0305445 -0.47401705 -0.10927749 4289161489
2.0845673 -0.49123442 -0.49444243 4289161489
2.1592424 -0.50922966 -0.43122834 4289161489
2.2012331 -0.51994383 -0.35823497 4289161489
2.1288106 -0.50362188 -0.26860005 4289161489
2.0783844 -0.49207529 -0.1868619 4289161489
2.0288775 -0.48110211 -0.10927749 4289161489
1.9844903 -0.47130844 -0.035602912 4289161489
2.0828397 -0.49850795 -0.49444243 4289161489
2.1498146 -0.51493442 -0.42970186 4289161489
2.1974838 -0.52716357 -0.35792211 4289161489
2.1405511 -0.51429594 -0.27030623 4289161489
2.0805283 -0.50025874 -0.18721053 4289161489
2.0388362 -0.49098691 -0.10990552 4289161489
1.9906088 -0.48010811 -0.035742529 4289161489
2.0735123 -0.5039345 -0.49264279 4289161489
2.1518195 -0.52336353 -0.4304651 4289161489
2.193711 -0.53436345 -0.35760921 4289161489
2.1425998 -0.52270573 -0.27079371 4289161489
2.0865116 -0.50940835 -0.18790779 4289161489
2.0312893 -0.49667761 -0.10959151 4289161489
2.002517 -0.49038318 -0.035986863 4289161489
2.0547128 -0.50696796 -0.4885937 4289161489
2.1537914 -0.53181285 -0.43122834 4289161489
2.2071733 -0.54581136 -0.36011216 4289161489
2.1408546 -0.52980793 -0.27079371 4289161489
2.1001918 -0.52052295 -0.18930228 4289161489
2.0392356 -0.50617087 -0.11011487 4289161489
2.0086427 -0.49894941 -0.036126483 4289161489
1.9904243 -0.49737561 -0.54973167 4289161489
2.0605822 -0.51567119 -0.49039328 4289161489
2.1367807 -0.53513658 -0.42817542 4289161489
2.2187636 -0.55649161 -0.36230227 4289161489
2.1487126 -0.53932065 -0.27201241 4289161489
2.1061831 -0.52942741 -0.18999951 4289161489
2.0452931 -0.51488078 -0.11053354 4289161489
1.9992205 -0.50365347 -0.035986863 4289161489
1.9812735 -0.5020752 -0.54766113 4289161489
2.0588608 -0.52250147 -0.49039328 4289161489
2.1387999 -0.54318595 -0.42893866 4289161489
2.2303069 -0.5672546 -0.36449236 4289161489
2.1506643 -0.54779774 -0.27249986 4289161489
2.1005547 -0.53542465 -0.18965089 4289161489
2.0474451 -0.52264839 -0.1107429 4289161489
2.0051999 -0.5126102 -0.036126483 4289161489
1.9832509 -0.50995022 -0.5486964 4289161489
2.0551372 -0.52919918 -0.48994341 4289161489
2.1368909 -0.55064845 -0.42893866 4289161489
2.2034478 -0.56861961 -0.36042506 4289161489
2.1621928 -0.55877852 -0.27420604 4289161489
2.0909574 -0.54075831 -0.18895365 4289161489
2.057209 -0.53279662 -0.11137092 4289161489
2.0111411 -0.52161461 -0.0362661 4289161489
1.9702427 -0.51394427 -0.54559058 4289161489
1.99484 -0.52073246 0.035986863 4289161489
2.0400789 -0.53292191 -0.48679405 4289161489
2.1349556 -0.55810422 -0.42893866 4289161489
2.2167375 -0.58030975 -0.362928 4289161489
2.1679099 -0.56833613 -0.275181 4289161489
2.1083286 -0.55310965 -0.19069678 4289161489
2.0553365 -0.53997433 -0.11137092 4289161489
2.0247788 -0.53270191 -0.03654534 4289161489
1.9703044 -0.52131271 -0.54610825 4289161489
2.0382063 -0.54003984 -0.48679405 4289161489
2.1405852 -0.56756586 -0.4304651 4289161489
2.2223351 -0.5900718 -0.36417946 4289161489
2.1620762 -0.57487994 -0.27469352 4289161489
2.121788 -0.56456417 -0.19209124 4289161489
2.0534391 -0.54714549 -0.11137092 4289161489
2.0267713 -0.54079753 -0.036615148 4289161489
1.961009 -0.5261845 -0.54403764 4289161489
1.9872935 -0.53360909 0.035917051 4289161489
2.0400729 -0.5481627 -0.48769391 4289161489
2.1271157 -0.5723471 -0.42817542 4289161489
2.2355213 -0.60193437 -0.36668244 4289161489
2.1696396 -0.58500743 -0.27591223 4289161489
2.1197045 -0.57233703 -0.19209124 4289161489
2.0591321 -0.55675334 -0.11178961 4289161489
2.0248711 -0.54786897 -0.036615148 4289161489
1.9516115 -0.53133857 -0.54196709 4289161489
1.9814657 -0.53983808 0.035847243 4289161489
2.0455704 -0.55768651 -0.48949349 4289161489
2.1174278 -0.57807118 -0.42664891 4289161489
2.2371111 -0.61116505 -0.36730817 4289161489
2.1751397 -0.59505087 -0.27688718 4289161489
2.1175926 -0.58010232 -0.19209124 4289161489
2.0647821 -0.56641012 -0.1122083 4289161489
2.0267062 -0.55634552 -0.036684956 4289161489
1.9477888 -0.5379737 -0.54144943 4289161489
1.9756192 -0.54603148 0.035777435 4289161489
2.0397563 -0.56414121 -0.4885937 4289161489
2.1229658 -0.58755356 -0.42817542 4289161489
2.2253382 -0.61672258 -0.36574382 4289161489
2.180701 -0.6047619 -0.27786213 4289161489
2.1251533 -0.59015614 -0.1929628 4289161489
2.074338 -0.57682467 -0.11283633 4289161489
2.0324581 -0.565561 -0.03682458 4289161489
1.9441336 -0.54390931 -0.54093182 4289161489
1.9814999 -0.5547362 0.035917051 4289161489
2.0266154 -0.56774801 -0.48589426 4289161489
2.1172247 -0.59353048 -0.42741215 4289161489
2.2194769 -0.6230309 -0.36511809 4289161489
2.1825058 -0.61306369 -0.27834961 4289161489
2.1289387 -0.59881866 -0.19348574 4289161489
2.0647237 -0.58153433 -0.11241764 4289161489
2.03827 -0.5744676 -0.036964197 4289161489
1.949754 -0.55245996 -0.54300237 4289161489
1.9796494 -0.56130403 0.035917051 4289161489
2.0247214 -0.57446539 -0.48589426 4289161489
2.1227994 -0.6026929 -0.42893866 4289161489
2.2135987 -0.62930721 -0.36449236 4289161489
2.1765342 -0.6195913 -0.27786213 4289161489
2.1383319 -0.60952336 -0.19453162 4289161489
2.0647047 -0.58892584 -0.11252232 4289161489
2.0439436 -0.58377576 -0.037103817 4289161489
1.947716 -0.55960232 -0.54300237 4289161489
1.9968977 -0.57373279 0.0362661 4289161489
2.0301955 -0.58368337 -0.48769391 4289161489
2.1092563 -0.60721064 -0.42664891 4289161489
2.2112772 -0.6374163 -0.36449236 4289161489
2.1800797 -0.6288355 -0.27859333 4289161489
2.1476762 -0.62030095 -0.19557749 4289161489
2.0778813 -0.60092837 -0.1133597 4289161489
2.0342097 -0.58868325 -0.036964197 4289161489
1.9383314 -0.56423801 -0.54093182 4289161489
2.0024612 -0.58328503 0.036405724 4289161489
2.0317843 -0.59221113 -0.4885937 4289161489
2.1033545 -0.6134702 -0.42588571 4289161489
2.209039 -0.64513117 -0.36449236 4289161489
2.1891923 -0.64016455 -0.28005576 4289161489
2.1416733 -0.62667483 -0.19522884 4289161489
2.0834377 -0.61042416 -0.11377838 4289161489
2.0358765 -0.59726107 -0.037034009 4289161489
1.9363499 -0.57100064 -0.54093182 4289161489
1.9889051 -0.58687574 0.036196291 4289161489
2.0315735 -0.59985149 -0.48904356 4289161489
2.1012003 -0.62080854 -0.42588571 4289161489
2.2105618 -0.65395898 -0.36511809 4289161489
2.1983645 -0.65118527 -0.28151822 4289161489
2.1452036 -0.63584554 -0.19575179 4289161489
2.0927825 -0.62110251 -0.11440641 4289161489
2.0452802 -0.60778147 -0.037243433 4289161489
1.9361961 -0.57830918 -0.54144943 4289161489
1.9868443 -0.59381461 0.036196291 4289161489
2.0163982 -0.60303092 -0.48589426 4289161489
1.9995239 -0.59836465 0.10938216 4289161489
2.1065438 -0.6303907 -0.42741215 4289161489
2.2025888 -0.65997034 -0.36417946 4289161489
2.2093875 -0.66284794 -0.28322437 4289161489
2.158237 -0.64791268 -0.19714628 4289161489
2.0867763 -0.62725407 -0.11419707 4289161489
2.058465 -0.6195277 -0.037522674 4289161489
1.9415621 -0.58730155 -0.54352003 4289161489
2.000071 -0.60538095 0.036475532 4289161489
2.0105507 -0.60893601 -0.48499447 4289161489
1.9821316 -0.6007064 0.10854478 4289161489
2.1080883 -0.63887894 -0.42817542 4289161489
2.2002716 -0.66765475 -0.36417946 4289161489
2.2032616 -0.66940206 -0.2827369 4289161489
2.1616812 -0.65718102 -0.19766922 4289161489
2.0922167 -0.63686085 -0.11461575 4289161489
2.0601156 -0.62787515 -0.037592482 4289161489
1.9302644 -0.59124637 -0.54093182 4289161489
2.0094168 -0.61587465 0.036684956 4289161489
2.0084128 -0.61595047 -0.48499447 4289161489
1.9667627 -0.60317689 0.10781208 4289161489
2.094584 -0.64277774 -0.42588571 4289161489
2.2092571 -0.67881215 -0.36605671 4289161489
2.2085009 -0.67942351 -0.28371185 4289161489
2.1669908 -0.66706735 -0.19836646 4289161489
2.0957072 -0.64592499 -0.11492977 4289161489
2.0542004 -0.63352472 -0.037522674 4289161489
1.9263437 -0.59740835 -0.54041415 4289161489
2.0111837 -0.62371945 0.036754768 4289161489
2.0193875 -0.62665009 -0.48814377 4289161489
1.96846 -0.61122304 0.10802142 4289161489
2.0810783 -0.64659029 -0.42359596 4289161489
2.2032216 -0.68496174 -0.36543098 4289161489
2.2195032 -0.69087327 -0.285418 4289161489
2.1684532 -0.6758132 -0.19871511 4289161489
2.1011803 -0.65524954 -0.11534845 4289161489
2.055794 -0.64188331 -0.037592482 4289161489
1.9188223 -0.60205811 -0.53886127 4289161489
2.0089943 -0.63073611 0.036754768 4289161489
2.0134697 -0.63252717 -0.48724398 4289161489
1.9815571 -0.62288195 0.1088588 4289161489
2.0864146 -0.65584284 -0.42512247 4289161489
2.1838586 -0.68731099 -0.36261514 4289161489
2.2284381 -0.70219624 -0.28688046 4289161489
2.1774814 -0.68697518 -0.19976096 4289161489
2.1141171 -0.66739005 -0.11618583 4289161489
2.0649812 -0.65267134 -0.037801914 4289161489
1.920285 -0.61025709 -0.53989661 4289161489
2.0105917 -0.63895613 0.03682458 4289161489
2.0019639 -0.63659894 -0.48499447 4289161489
1.988887 -0.63282287 0.10938216 4289161489
2.0914795 -0.66586781 -0.42664891 4289161489
2.1850889 -0.69651049 -0.36324087 4289161489
2.2259734 -0.70997071 -0.28688046 4289161489
2.1807642 -0.69638997 -0.20028389 4289161489
2.1059494 -0.67330939 -0.11587181 4289161489
2.0664997 -0.66109413 -0.037871722 4289161489
1.9236603 -0.61873096 -0.54144943 4289161489
2.0234649 -0.65122211 0.037103817 4289161489
1.9996171 -0.64393228 -0.48499447 4289161489
1.9828637 -0.63853717 0.10917282 4289161489
2.0854053 -0.67196006 -0.42588571 4289161489
2.1807644 -0.70352715 -0.362928 4289161489
2.2271342 -0.71934479 -0.28736794 4289161489
2.1972785 -0.71012509 -0.20202701 4289161489
2.1130881 -0.6837309 -0.11639518 4289161489
2.0793993 -0.67323118 -0.038150962 4289161489
1.9251629 -0.62663794 -0.54248476 4289161489
2.0308018 -0.66102326 0.037278343 4289161489
1.9974707 -0.65055966 -0.48499447 4289161489
1.9844204 -0.6466924 0.10938216 4289161489
2.0755811 -0.67680103 -0.42435926 4289161489
2.1859312 -0.71320587 -0.36417946 4289161489
2.2303975 -0.72857541 -0.28809914 4289161489
2.1947863 -0.71779072 -0.20202701 4289161489
2.1203001 -0.69384009 -0.11691854 4289161489
2.0694354 -0.67799515 -0.038011342 4289161489
1.9138992 -0.62999839 -0.53989661 4289161489
2.0398777 -0.67186147 0.037487768 4289161489
2.0025909 -0.65996796 -0.48679405 4289161489
1.982151 -0.65361542 0.10938216 4289161489
2.0695961 -0.68245047 -0.42359596 4289161489
2.1834283 -0.72083187 -0.36417946 4289161489
2.2448041 -0.74196327 -0.2902928 4289161489
2.1867187 -0.72318804 -0.20150407 4289161489
2.1273453 -0.7043761 -0.1174419 4289161489
2.0746486 -0.68773162 -0.038150962 4289161489
1.9098555 -0.63606495 -0.53937894 4289161489
2.0261376 -0.67518473 0.037278343 4289161489
2.0002751 -0.66695434 -0.48679405 4289161489
1.9950142 -0.66558707 0.11021954 4289161489
2.0709262 -0.6909132 -0.42435926 4289161489
2.1677835 -0.72406834 -0.36198941 4289161489
2.2516136 -0.75294244 -0.29151151 4289161489
2.1936283 -0.73397774 -0.20237562 4289161489
2.1286614 -0.7130664 -0.11765125 4289161489
2.0836108 -0.69878423 -0.038360391 4289161489
1.9076238 -0.64272761 -0.53937894 4289161489
2.0389276 -0.68736351 0.03755758 4289161489
1.9831625 -0.66894954 -0.48319483 4289161489
2.0117211 -0.67858273 0.11126626 4289161489
2.0722222 -0.69939351 -0.42512247 4289161489
2.1671145 -0.73226327 -0.36230227 4289161489
2.2602539 -0.76461405 -0.29297391 4289161489
2.2023761 -0.74546313 -0.2034215 4289161489
2.1223762 -0.71921045 -0.1174419 4289161489
2.0926447 -0.70954251 -0.038569819 4289161489
1.9126828 -0.65187538 -0.54144943 4289161489
2.044208 -0.69670147 0.0376972 4289161489
1.9809333 -0.67552233 -0.48319483 4289161489
2.0017791 -0.68302095 0.11084756 4289161489
2.0771999 -0.70915991 -0.42664891 4289161489
2.1590662 -0.73752987 -0.36136368 4289161489
2.2464364 -0.768251 -0.29151151 4289161489
2.2148404 -0.75830936 -0.204816 4289161489
2.1275373 -0.72883373 -0.11786059 4289161489
2.0939384 -0.71814048 -0.038639627 4289161489
1.9068575 -0.65695596 -0.54041415 4289161489
2.053107 -0.70774317 0.037906628 4289161489
1.9877744 -0.68560994 -0.48544434 4289161489
1.9993825 -0.69000435 0.11084756 4289161489
2.0637019 -0.71220148 -0.42435926 4289161489
2.1639469 -0.74764228 -0.36261514 4289161489
2.2531209 -0.7793324 -0.29273018 4289161489
2.2198448 -0.76825625 -0.20551322 4289161489
2.1344161 -0.73952496 -0.11838394 4289161489
2.0838618 -0.72282398 -0.038500007 4289161489
1.8972557 -0.66106564 -0.53834367 4289161489
2.0525119 -0.71556365 0.03794153 4289161489
1.9853691 -0.69254446 -0.48544434 4289161489
2.0158188 -0.70356071 0.11189428 4289161489
2.0612032 -0.71940076 -0.42435926 4289161489
2.1743774 -0.75975239 -0.36480519 4289161489
2.2560084 -0.78915888 -0.29346141 4289161489
2.2265522 -0.77929127 -0.20638479 4289161489
2.1487858 -0.7529152 -0.119326 4289161489
2.0926478 -0.73406512 -0.038709439 4289161489
1.8967584 -0.6683262 -0.53886127 4289161489
2.048116 -0.72205913 0.037906628 4289161489
1.9902906 -0.70206356 -0.48724398 4289161489
2.0208843 -0.71325189 0.11231297 4289161489
2.0549767 -0.7252844 -0.42359596 4289161489
2.1474993 -0.75878257 -0.36073789 4289161489
2.2644687 -0.80100095 -0.29492384 4289161489
2.2256968 -0.78772342 -0.20655911 4289161489
2.1536748 -0.76307935 -0.11974468 4289161489
2.0976112 -0.7440393 -0.038849056 4289161489
1.8962339 -0.67559141 -0.53937894 4289161489
2.0531173 -0.73188972 0.038046245 4289161489
1.9749795 -0.70442402 -0.48409468 4289161489
2.0259066 -0.72298694 0.11273166 4289161489
2.0598288 -0.73509276 -0.42512247 4289161489
2.0095832 -0.71755713 0.1866876 4289161489
2.1485581 -0.76760334 -0.36136368 4289161489
2.2635279 -0.809569 -0.2951676 4289161489
2.2323132 -0.79884422 -0.20743066 4289161489
2.1434772 -0.76789802 -0.119326 4289161489
2.1138241 -0.75810754 -0.039198104 4289161489
1.8938642 -0.68220639 -0.53937894 4289161489
2.0599561 -0.74244219 0.038220771 4289161489
1.9651757 -0.70866936 -0.48229504 4289161489
2.0233705 -0.73005432 0.11273166 4289161489
2.0572503 -0.74227852 -0.42512247 4289161489
2.0033178 -0.72321427 0.18633896 4289161489
2.1458657 -0.7750985 -0.36136368 4289161489
2.2532208 -0.81476504 -0.29419261 4289161489
2.225764 -0.80527592 -0.20708205 4289161489
2.153929 -0.78013659 -0.1200587 4289161489
2.111165 -0.76548153 -0.039198104 4289161489
1.8987321 -0.69145733 -0.54144943 4289161489
2.0648675 -0.75236666 0.038360391 4289161489
1.9700136 -0.71819466 -0.48409468 4289161489
2.0245624 -0.73848146 0.112941 4289161489
2.0472689 -0.74676394 -0.42359596 4289161489
2.1487138 -0.78461701 -0.36230227 4289161489
2.2503631 -0.82262534 -0.29419261 4289161489
2.2379086 -0.81851536 -0.20847654 4289161489
2.1549437 -0.78902376 -0.12026804 4289161489
2.1047251 -0.77146977 -0.039128296 4289161489
1.8818036 -0.69274181 -0.53730839 4289161489
2.0734873 -0.76371658 0.038569819 4289161489
1.9674947 -0.7250669 -0.48409468 4289161489
2.0257204 -0.74692607 0.11315035 4289161489
2.0409658 -0.75254732 -0.42283276 4289161489
1.9776589 -0.72959685 0.18442155 4289161489
2.1515212 -0.79416472 -0.36324087 4289161489
2.2586503 -0.83460391 -0.29565504 4289161489
2.2294316 -0.82424939 -0.2079536 4289161489
2.170907 -0.80347365 -0.12131476 4289161489
2.11327 -0.7829805 -0.039337724 4289161489
1.8757528 -0.69795889 -0.53627306 4289161489
2.0726829 -0.77164751 0.038604725 4289161489
1.9740826 -0.73533159 -0.48634419 4289161489
2.0418158 -0.76096749 0.11419707 4289161489
2.0420058 -0.76103824 -0.42359596 4289161489
1.9751 -0.73649573 0.18442155 4289161489
2.139482 -0.79821748 -0.36167651 4289161489
2.2594423 -0.84387207 -0.29614252 4289161489
2.2377388 -0.83621109 -0.20899945 4289161489
2.1830544 -0.81664491 -0.12215213 4289161489
2.1198876 -0.79385889 -0.039512251 4289161489
1.8841544 -0.7085824 -0.53937894 4289161489
2.07372 -0.78028637 0.038674533 4289161489
1.9587371 -0.73741156 -0.48319483 4289161489
2.0410161 -0.76879412 0.11430173 4289161489
2.0466859 -0.77092981 -0.42512247 4289161489
1.9874321 -0.74900663 0.18581605 4289161489
2.1311376 -0.80359 -0.36073789 4289161489
2.2564828 -0.85175389 -0.29614252 4289161489
2.2497172 -0.84964854 -0.21039395 4289161489
2.1671131 -0.81931603 -0.12141944 4289161489
2.1320655 -0.80691648 -0.039791487 4289161489
1.885281 -0.71652764 -0.54041415 4289161489
2.0728526 -0.78823096 0.038709439 4289161489
1.9579726 -0.74493742 -0.48364475 4289161489
2.0345869 -0.77449286 0.11409239 4289161489
2.0439823 -0.77806938 -0.42512247 4289161489
1.9997007 -0.76161259 0.18721053 4289161489
2.1338573 -0.81313431 -0.36167651 4289161489
2.2497866 -0.85821021 -0.29565504 4289161489
2.2485993 -0.85820681 -0.21056828 4289161489
2.1605086 -0.82545 -0.12121009 4289161489
2.1404421 -0.81863981 -0.040000916 4289161489
1.8917855 -0.72656727 -0.54300237 4289161489
2.0812883 -0.79976547 0.038918864 4289161489
1.9589982 -0.75316602 -0.48454455 4289161489
2.0318711 -0.78159016 0.11409239 4289161489
2.0375893 -0.78378975 -0.42435926 4289161489
2.0081866 -0.77288193 0.1882564 4289161489
2.1328495 -0.82128781 -0.36198941 4289161489
2.2356634 -0.86177427 -0.29419261 4289161489
2.2455897 -0.86605078 -0.21056828 4289161489
2.1725197 -0.83874112 -0.12204745 4289161489
2.1245151 -0.82106042 -0.039756581 4289161489
1.8694271 -0.72547835 -0.53730839 4289161489
2.0784841 -0.80702555 0.038918864 4289161489
1.9654397 -0.76352799 -0.48679405 4289161489
2.0235455 -0.78650725 0.11377838 4289161489
2.0275211 -0.78805244 -0.42283276 4289161489
1.9739089 -0.76761115 0.18529311 4289161489
2.1373334 -0.83159298 -0.36324087 4289161489
2.2400408 -0.87245476 -0.2951676 4289161489
2.2184196 -0.86447954 -0.20830221 4289161489
2.1546931 -0.84051299 -0.12121009 4289161489
2.1067343 -0.82265234 -0.039477345 4289161489
1.8668833 -0.73199946 -0.53730839 4289161489
2.0495923 -0.80405182 0.038430199 4289161489
1.9609486 -0.76967204 -0.48634419 4289161489
2.0114927 -0.78991568 0.11325502 4289161489
2.0320678 -0.79799557 -0.42435926 4289161489
1.9656544 -0.77231091 0.18477017 4289161489
2.1252253 -0.83543497 -0.36167651 4289161489
2.2369819 -0.88026863 -0.2951676 4289161489
2.2061191 -0.86856866 -0.20743066 4289161489
2.149888 -0.84729689 -0.12110542 4289161489
2.0964091 -0.82706577 -0.039337724 4289161489
1.871501 -0.74135745 -0.53937894 4289161489
2.0319011 -0.80530703 0.038150962 4289161489
1.9455693 -0.77148396 -0.48319483 4289161489
1.9975842 -0.79251313 0.11262699 4289161489
2.0292697 -0.80508393 -0.42435926 4289161489
1.9740574 -0.78357798 0.18581605 4289161489
2.1222961 -0.84284842 -0.36167651 4289161489
2.2375848 -0.88953853 -0.29565504 4289161489
2.1956687 -0.87331879 -0.20673342 4289161489
2.1153722 -0.84223652 -0.119326 4289161489
2.0786486 -0.82845569 -0.039058488 4289161489
1.875945 -0.75108415 -0.54144943 4289161489
2.0215106 -0.80977464 0.038011342 4289161489
1.9445375 -0.77933466 -0.48364475 4289161489
1.9725586 -0.79056501 0.11137092 4289161489
2.0335941 -0.81543887 -0.42588571 4289161489
2.1191928 -0.85062134 -0.36167651 4289161489
2.2195735 -0.89181286 -0.29370514 4289161489
2.1887558 -0.87987417 -0.20638479 4289161489
2.1159768 -0.8514753 -0.11953534 4289161489
2.0720341 -0.83421296 -0.03898868 4289161489
1.8697298 -0.75617921 -0.54041415 4289161489
2.0151062 -0.81497419 0.03794153 4289161489
1.9509747 -0.78943348 -0.48589426 4289161489
1.9623818 -0.79444784 0.11095224 4289161489
2.0198174 -0.81811023 -0.42359596 4289161489
2.1273451 -0.86209571 -0.36355373 4289161489
2.2092459 -0.89618367 -0.29273018 4289161489
2.1653652 -0.87926364 -0.20446737 4289161489
2.1020391 -0.85397696 -0.1189073 4289161489
2.0505857 -0.83390743 -0.038639627 4289161489
1.8600581 -0.75945437 -0.53834367 4289161489
2.0085471 -0.82049078 0.037871722 4289161489
1.9482073 -0.79623884 -0.48589426 4289161489
1.9523413 -0.79792845 0.11053354 4289161489
2.0207279 -0.82628989 -0.42435926 4289161489
2.1316352 -0.8725093 -0.36480519 4289161489
2.1969202 -0.90012681 -0.29151151 4289161489
2.1440024 -0.87888229 -0.20272426 4289161489
2.09535 -0.85979289 -0.11869796 4289161489
2.0367098 -0.83614624 -0.038430199 4289161489
1.8556097 -0.76520598 -0.537826 4289161489
1.9762362 -0.81494927 0.037313245 4289161489
1.9509604 -0.80492467 -0.48724398 4289161489
1.9495441 -0.80473858 0.11053354 4289161489
2.0214605 -0.83483732 -0.42512247 4289161489
2.1177764 -0.87504721 -0.362928 4289161489
2.193923 -0.90740705 -0.29151151 4289161489
2.1261945 -0.88026381 -0.20132977 4289161489
2.0758798 -0.85985768 -0.1177559 4289161489
2.0263901 -0.84018689 -0.038290579 4289161489
1.8566289 -0.77284002 -0.53886127 4289161489
1.9659954 -0.81876749 0.037173625 4289161489
1.9373457 -0.80723268 -0.48454455 4289161489
1.9356624 -0.80692786 0.10990552 4289161489
2.0259292 -0.84455776 -0.42664891 4289161489
2.1092398 -0.88015223 -0.36198941 4289161489
2.1760883 -0.90893894 -0.2895616 4289161489
2.1177487 -0.885005 -0.20080683 4289161489
2.0581257 -0.86093253 -0.11691854 4289161489
2.0123777 -0.84262127 -0.038081151 4289161489
1.8646054 -0.78380793 -0.54196709 4289161489
1.9668121 -0.82717556 0.037243433 4289161489
1.9399048 -0.81625783 -0.48589426 4289161489
1.9107444 -0.80438054 0.10864946 4289161489
2.0193498 -0.85010093 -0.42588571 4289161489
2.1188972 -0.89287895 -0.36417946 4289161489
2.160099 -0.91112894 -0.28785542 4289161489
2.1054685 -0.88851875 -0.19993527 4289161489
2.0403891 -0.86189413 -0.11608116 4289161489
2.0020566 -0.84652555 -0.03794153 4289161489
1.8583014 -0.78880215 -0.54093182 4289161489
1.9491879 -0.82778275 0.036964197 4289161489
1.9370438 -0.82302433 -0.48589426 4289161489
1.8968964 -0.80635715 0.10802142 4289161489
2.0091431 -0.85407245 -0.42435926 4289161489
2.124856 -0.90413702 -0.36574382 4289161489
2.1532526 -0.91710782 -0.28736794 4289161489
2.0986884 -0.89430064 -0.19958666 4289161489
2.035531 -0.86822754 -0.11597649 4289161489
1.9770206 -0.84408653 -0.037522674 4289161489
1.8484341 -0.7922399 -0.53886127 4289161489
1.9352596 -0.82985318 0.036754768 4289161489
1.93595 -0.8305493 -0.48634419 4289161489
1.8867286 -0.80982256 0.10760273 4289161489
2.0025413 -0.8595317 -0.42359596 4289161489
2.1235018 -0.91232842 -0.36605671 4289161489
2.1372731 -0.91912884 -0.28566176 4289161489
2.0772521 -0.89374655 -0.19784354 4289161489
2.0233159 -0.87137747 -0.11545313 4289161489
1.963044 -0.84623271 -0.037313245 4289161489
1.8438847 -0.79792017 -0.53834367 4289161489
1.9176702 -0.83024752 0.036475532 4289161489
1.9366155 -0.83885103 -0.48724398 4289161489
1.8838904 -0.81640363 0.10760273 4289161489
2.0067346 -0.8696394 -0.42512247 4289161489
2.1112432 -0.9158048 -0.36449236 4289161489
2.1213057 -0.92104942 -0.2839556 4289161489
2.0631549 -0.89622909 -0.19679767 4289161489
2.0129356 -0.87524939 -0.11503445 4289161489
1.9600781 -0.85307986 -0.037313245 4289161489
1.8499392 -0.80821866 -0.54093182 4289161489
1.900102 -0.83052909 0.036196291 4289161489
1.9229625 -0.8409211 -0.48454455 4289161489
1.8737102 -0.81977236 0.10718405 4289161489
2.0108812 -0.87978643 -0.42664891 4289161489
2.1080337 -0.92316884 -0.36449236 4289161489
2.105351 -0.92286998 -0.28224945 4289161489
2.0545402 -0.90102482 -0.19627473 4289161489
1.9897512 -0.87343967 -0.11388306 4289161489
1.9497653 -0.85669899 -0.037173625 4289161489
1.8488744 -0.81545079 -0.54144943 4289161489
1.8935325 -0.83554214 0.036126483 4289161489
1.9200155 -0.84762841 -0.48454455 4289161489
1.8562212 -0.81985235 0.10634667 4289161489
2.0077977 -0.88680047 -0.42664891 4289161489
2.1084116 -0.93211907 -0.36511809 4289161489
2.0821486 -0.92137712 -0.27956831 4289161489
2.0477388 -0.90657789 -0.19592611 4289161489
1.9793863 -0.87714332 -0.11346437 4289161489
1.9357953 -0.85863501 -0.036964197 4289161489
1.8513111 -0.82425684 -0.54300237 4289161489
1.8869507 -0.84051925 0.036056671 4289161489
1.917045 -0.85432529 -0.48454455 4289161489
1.9975178 -0.89060575 -0.42512247 4289161489
2.1159685 -0.94430327 -0.3669953 4289161489
2.0644195 -0.92216259 -0.27761838 4289161489
2.0300097 -0.90721697 -0.19453162 4289161489
1.9580806 -0.8758918 -0.11241764 4289161489
1.9145354 -0.85721517 -0.036615148 4289161489
1.834326 -0.82437879 -0.53886127 4289161489
1.8803579 -0.84546071 0.035986863 4289161489
1.9247144 -0.86580867 -0.48724398 4289161489
1.9943968 -0.89757288 -0.42512247 4289161489
2.0874443 -0.94032496 -0.36261514 4289161489
2.0611882 -0.92936307 -0.27761838 4289161489
2.0032206 -0.90364701 -0.19226557 4289161489
1.953191 -0.88189954 -0.11231297 4289161489
1.9043928 -0.86026645 -0.036475532 4289161489
1.8296781 -0.82997888 -0.53834367 4289161489
1.8556906 -0.8417787 0.035568006 4289161489
1.9182837 -0.87057579 -0.48634419 4289161489
1.9984012 -0.90777701 -0.42664891 4289161489
2.0807178 -0.94560748 -0.36198941 4289161489
2.0436394 -0.92961758 -0.27566847 4289161489
1.9873612 -0.90485495 -0.19104539 4289161489
1.9429854 -0.88505995 -0.11189428 4289161489
1.8904612 -0.86193132 -0.0362661 4289161489
1.8374555 -0.84086496 -0.54144943 4289161489
1.8454684 -0.84492141 0.035428386 4289161489
1.9081461 -0.87402028 -0.48454455 4289161489
1.99538 -0.91439891 -0.42664891 4289161489
2.0666313 -0.94792348 -0.36011216 4289161489
2.0349698 -0.9342609 -0.27493724 4289161489
1.973328 -0.90679508 -0.18999951 4289161489
1.9235523 -0.88432842 -0.11095224 4289161489
1.887441 -0.86852497 -0.0362661 4289161489
1.8343613 -0.8475939 -0.54144943 4289161489
1.8316162 -0.8463254 0.035218958 4289161489
1.9121592 -0.8839466 -0.48634419 4289161489
1.9991424 -0.92500401 -0.42817542 4289161489
2.0613508 -0.95466161 -0.35979933 4289161489
2.0118837 -0.93217862 -0.27225614 4289161489
1.9665358 -0.91200125 -0.18965089 4289161489
1.9039935 -0.88380432 -0.11001018 4289161489
1.8698884 -0.86837006 -0.035986863 4289161489
1.8436475 -0.859707 -0.54507297 4289161489
1.8212529 -0.84965122 0.035079334 4289161489
1.9089066 -0.89094907 -0.48634419 4289161489
1.9923434 -0.93031526 -0.42741215 4289161489
2.0472684 -0.95683283 -0.35792211 4289161489
1.9976652 -0.9344995 -0.27079371 4289161489
1.9561224 -0.9154821 -0.18895365 4289161489
1.9027057 -0.89129251 -0.11011487 4289161489
1.8559818 -0.86980039 -0.035777435 4289161489
1.8196594 -0.85626662 -0.53886127 4289161489
1.811188 -0.85228026 0.034939718 4289161489
1.9147573 -0.90142459 -0.4885937 4289161489
1.9819801 -0.93391687 -0.42588571 4289161489
2.0405104 -0.96193188 -0.35729638 4289161489
1.9873739 -0.93773043 -0.26981872 4289161489
1.9348987 -0.91379625 -0.18721053 4289161489
1.883487 -0.88991809 -0.10917282 4289161489
1.8420877 -0.87114424 -0.035568006 4289161489
1.8168099 -0.86229616 -0.53886127 4289161489
1.8045892 -0.85688198 0.034869909 4289161489
1.913359 -0.90893888 -0.48904356 4289161489
1.9859648 -0.94385517 -0.42741215 4289161489
2.0121665 -0.95716894 -0.35291618 4289161489
1.9805039 -0.94295526 -0.26933128 4289161489
1.9246629 -0.91678041 -0.18651329 4289161489
1.8713552 -0.89218968 -0.10864946 4289161489
1.8354262 -0.87584668 -0.035498194 4289161489
1.8225006 -0.87280488 -0.54144943 4289161489
1.8051938 -0.86490393 0.034939718 4289161489
1.9031456 -0.91224301 -0.48724398 4289161489
1.9861988 -0.95247954 -0.42817542 4289161489
2.0052516 -0.96247745 -0.35229045 4289161489
1.9718325 -0.94728398 -0.26860005 4289161489
1.9178594 -0.921767 -0.18616466 4289161489
1.8538307 -0.89178991 -0.10781208 4289161489
1.8215473 -0.87704301 -0.035288766 4289161489
1.8194429 -0.8791613 -0.54144943 4289161489
1.9017041 -0.91972911 -0.48769391 4289161489
1.9863962 -0.96111703 -0.42893866 4289161489
1.9965458 -0.96688813 -0.35135183 4289161489
1.9506507 -0.94550276 -0.26616266 4289161489
1.9037126 -0.92357218 -0.18511879 4289161489
1.8399255 -0.89302301 -0.10718405 4289161489
1.816676 -0.88252234 -0.03525386 4289161489
1.8231536 -0.88921148 -0.54352003 4289161489
1.8949791 -0.92465258 -0.48679405 4289161489
1.9793322 -0.96666807 -0.42817542 4289161489
1.9805658 -0.96812695 -0.34916177 4289161489
1.9384221 -0.94794565 -0.26494396 4289161489
1.8933192 -0.92670822 -0.18442155 4289161489
1.8348464 -0.89888185 -0.10707937 4289161489
1.7938325 -0.87917775 -0.034869909 4289161489
1.8096384 -0.89045244 -0.54041415 4289161489
1.9020668 -0.93675774 -0.48949349 4289161489
1.9741846 -0.97270358 -0.4277938 4289161489
1.9718593 -0.97241342 -0.34822315 4289161489
1.9260342 -0.95065087 -0.26372528 4289161489
1.8738332 -0.92569906 -0.18285275 4289161489
1.8263263 -0.90262657 -0.10676537 4289161489
1.7834287 -0.8822 -0.034730289 4289161489
1.809823 -0.89879775 -0.54144943 4289161489
1.8987854 -0.94339144 -0.48949349 4289161489
1.9688482 -0.9790585 -0.42741215 4289161489
1.9505976 -0.97083235 -0.34509447 4289161489
1.9138192 -0.95294416 -0.26250657 4289161489
1.8598912 -0.92690217 -0.18180689 4289161489
1.8158565 -0.90574837 -0.10634667 4289161489
1.7767596 -0.88663417 -0.034660477 4289161489
1.813742 -0.90825433 -0.54352003 4289161489
1.8885121 -0.9465211 -0.48769391 4289161489
1.9708556 -0.988222 -0.42855701 4289161489
1.9438365 -0.97552335 -0.34446874 4289161489
1.9016118 -0.95516384 -0.2612879 4289161489
1.8550268 -0.93217015 -0.18163256 4289161489
1.8021371 -0.90638047 -0.10571864 4289161489
1.7755959 -0.89342004 -0.034695383 4289161489
1.8105606 -0.91457993 -0.54352003 4289161489
1.8836236 -0.95189941 -0.48724398 4289161489
1.9638904 -0.9933235 -0.4277938 4289161489
1.9335405 -0.97839648 -0.34321725 4289161489
1.893121 -0.95877379 -0.26055667 4289161489
1.8446535 -0.93503654 -0.18093532 4289161489
1.7902149 -0.90783495 -0.10519528 4289161489
1.7724665 -0.89961261 -0.034695383 4289161489
1.8109608 -0.92233253 -0.54455531 4289161489
1.887234 -0.96200866 -0.48904356 4289161489
1.946594 -0.99269509 -0.42474085 4289161489
1.9283541 -0.98424178 -0.34290439 4289161489
1.8703172 -0.95544261 -0.25787556 4289161489
1.8413783 -0.94146991 -0.18093532 4289161489
1.7799225 -0.91044044 -0.10477659 4289161489
1.7972587 -0.92366546 -0.54144943 4289161489
1.8907969 -0.9721548 -0.49084321 4289161489
1.9411968 -0.99892485 -0.42435926 4289161489
1.9194653 -0.98858958 -0.34196579 4289161489
1.8652059 -0.96105611 -0.25763181 4289161489
1.8115187 -0.93419385 -0.17832063 4289161489
1.7801232 -0.9187901 -0.10498594 4289161489
1.7905933 -0.92815536 -0.54041415 4289161489
1.8906808 -0.98087323 -0.491743 4289161489
1.9307278 -1.0020772 -0.42283276 4289161489
1.8967199 -0.9852671 -0.33852422 4289161489
1.8599097 -0.96697021 -0.25738806 4289161489
1.8064793 -0.93959224 -0.17814633 4289161489
1.7662756 -0.91946489 -0.10435791 4289161489
1.7993264 -0.94066513 -0.54403764 4289161489
1.8822371 -0.98442805 -0.49039328 4289161489
1.9167819 -1.0033476 -0.42054302 4289161489
1.8811928 -0.98513663 -0.33633414 4289161489
1.8514184 -0.97036815 -0.25665686 4289161489
1.8014239 -0.94496679 -0.17797202 4289161489
1.7419947 -0.91417986 -0.10310185 4289161489
1.8047425 -0.95113021 -0.54662579 4289161489
1.8736182 -0.9882648 -0.48904356 4289161489
1.9134442 -1.0096984 -0.42054302 4289161489
1.8725023 -0.98892969 -0.33539551 4289161489
1.8199396 -0.96198225 -0.25275704 4289161489
1.7877127 -0.94534707 -0.17692617 4289161489
1.7282014 -0.91464931 -0.10247381 4289161489
1.8065292 -0.96014416 -0.54817873 4289161489
1.8822007 -1.0012052 -0.49219292 4289161489
1.8925767 -1.0071484 -0.41672686 4289161489
1.8585778 -0.98988831 -0.33351833 4289161489
1.8095634 -0.96459401 -0.25178206 4289161489
1.7808858 -0.94970649 -0.17657752 4289161489
1.7479041 -0.93290186 -0.10383455 4289161489
1.7997611 -0.96461904 -0.54714346 4289161489
1.883846 -1.0105327 -0.49354258 4289161489
1.8786703 -1.0081786 -0.41443717 4289161489
1.8603317 -0.99917388 -0.33445692 4289161489
1.7991915 -0.96714514 -0.25080714 4289161489
1.7617671 -0.94742429 -0.17500873 4289161489
1.8820212 -1.0180296 -0.49399251 4289161489
1.8647798 -1.0091242 -0.41214746 4289161489
1.8290412 -0.99060971 -0.32945102 4289161489
1.7940594 -0.97247368 -0.25056338 4289161489
1.7479407 -0.94786966 -0.17396286 4289161489
1.8784561 -1.0245929 -0.49399251 4289161489
1.8577992 -1.0137464 -0.41138422 4289161489
1.8186373 -0.9932009 -0.32819954 4289161489
1.7836865 -0.97492188 -0.24958843 4289161489
1.7463695 -0.95492119 -0.17413718 4289161489
1.8714532 -1.0292655 -0.49309272 4289161489
1.8473686 -1.0164394 -0.40985772 4289161489
1.8116984 -0.99763733 -0.32757381 4289161489
1.7576715 -0.96868628 -0.24641983 4289161489
1.7430255 -0.96101129 -0.17413718 4289161489
1.8661447 -1.0348467 -0.49264279 4289161489
1.8266419 -1.0133578 -0.40604156 4289161489
1.8030239 -1.0010786 -0.32663518 4289161489
1.7542793 -0.97481585 -0.24641983 4289161489
1.8557173 -1.0375506 -0.49084321 4289161489
1.8196665 -1.0178111 -0.40527833 4289161489
1.7891767 -1.0015769 -0.32475799 4289161489
1.7491338 -0.97996312 -0.24617608 4289161489
1.8452939 -1.0401939 -0.48904356 4289161489
1.8092623 -1.0202992 -0.40375188 4289161489
1.7667463 -0.99713594 -0.32131645 4289161489
1.7457025 -0.98606271 -0.24617608 4289161489
1.829792 -1.0398889 -0.48589426 4289161489
1.7988631 -1.0227271 -0.40222538 4289161489
1.756387 -0.99938923 -0.32006493 4289161489
1.7370751 -0.98920357 -0.24544489 4289161489
1.8176965 -1.0414259 -0.48364475 4289161489
1.7884688 -1.025095 -0.40069893 4289161489
1.7443206 -1.0005997 -0.31850061 4289161489
1.8089877 -1.0448406 -0.48229504 4289161489
1.7712805 -1.0234739 -0.39764598 4289161489
1.7476574 -1.0106379 -0.3197521 4289161489
1.8070136 -1.0521293 -0.48274496 4289161489
1.7541257 -1.0217453 -0.39459303 4289161489
1.7441189 -1.0167321 -0.3197521 4289161489
1.7951106 -1.0531852 -0.48049545 4289161489
1.7676593 -1.0374943 -0.39840919 4289161489
