# .PCD v0.7 - Point Cloud Data file format
VERSION 0.7
FIELDS x y z rgb
SIZE 4 4 4 4
TYPE F F F U
COUNT 1 1 1 1
WIDTH 1096
HEIGHT 1
VIEWPOINT 0 0 0 1 0 0 0
POINTS 1096
DATA ascii
-2.5993505 2.2956696 0.42581153 4282121834
-2.5883546 2.3020906 0.42532405 4282121834
-2.5803032 2.3111117 0.42532405 4282121834
-2.5814703 2.3276315 0.42678648 4282121834
-2.5825565 2.3441844 0.42824891 4282121834
-2.5864923 2.3634484 0.43019882 4282121834
-2.5719707 2.3675342 0.42922387 4282121834
-2.566602 2.3791974 0.42971134 4282121834
-2.5669878 2.3962696 0.43117377 4282121834
-2.574518 2.4201708 0.43385491 4282121834
-2.5501969 2.4141314 0.43117377 4282121834
-2.5177469 2.3992944 0.42703021 4282121834
-2.4921691 2.3915746 0.42410538 4282121834
-2.4752414 2.3919821 0.42264292 4282121834
-2.4611855 2.3950706 0.42166796 4282121834
-2.4301252 2.381417 0.41776815 4282121834
-2.4104946 2.3787301 0.41581824 4282121834
-2.3880956 2.3731372 0.41338086 4282121834
-2.3685718 2.3702254 0.41143093 4282121834
-2.3546908 2.372843 0.410456 4282121834
-2.3324599 2.3669086 0.40801859 4282121834
-2.3079343 2.3576078 0.40509373 4282121834
-2.2803192 2.3457227 0.40168139 4282121834
-2.2693601 2.3508112 0.40119389 4282121834
-2.2474031 2.3443885 0.3987565 4282121834
-2.2282562 2.3407166 0.3968066 4282121834
-2.2064352 2.3340552 0.39436921 4282121834
-2.1819706 2.3243754 0.39144436 4282121834
-2.1684296 2.3261695 0.39046943 4282121834
-2.1549027 2.3278971 0.38949445 4282121834
-2.1333296 2.3207903 0.38705707 4282121834
-2.1122363 2.3131931 0.38461968 4282121834
-2.0908146 2.3058465 0.3821823 4282121834
-2.0747824 2.3042798 0.38071984 4282121834
-2.0587881 2.302629 0.37925744 4282121834
-2.0454659 2.3038635 0.37828246 4282121834
-2.0216587 2.2931213 0.3753576 4282121834
-2.0044892 2.2897084 0.37365144 4282121834
-1.9899722 2.2892013 0.37243277 4282121834
-1.9715923 2.284112 0.37048283 4282121834
-1.9584403 2.2849507 0.36950788 4282121834
-1.9379834 2.2763183 0.3670705 4282121834
-1.9176065 2.2675743 0.36463311 4282121834
-1.9045738 2.268173 0.36365816 4282121834
-1.8915592 2.2687089 0.36268318 4282121834
-1.8760338 2.2661231 0.36122078 4282121834
-1.8555062 2.2573233 0.35878339 4282121834
-1.8388294 2.2530208 0.35707721 4282121834
-1.8234545 2.2501726 0.35561478 4282121834
-1.8131003 2.2534301 0.35512727 4282121834
-1.8002681 2.2535415 0.35415235 4282121834
-1.7742765 2.2361732 0.35049626 4282121834
-1.7590902 2.2329967 0.34903383 4282121834
-1.7467821 2.2325644 0.34805888 4282121834
-1.7361531 2.2358158 0.3475714 4282121834
-1.7186413 2.2292857 0.3456215 4282121834
-1.6987844 2.2195075 0.34318411 4282121834
-1.6814188 2.212779 0.34123421 4282121834
-1.6709064 2.2157576 0.34074673 4282121834
-1.6635489 2.2212868 0.34074673 4282121834
-1.6510477 2.2207074 0.33977175 4282121834
-1.6318839 2.2102003 0.33733436 4282121834
-1.6171172 2.2062771 0.33587193 4282121834
-1.6023989 2.2022772 0.33440951 4282121834
-1.5912153 2.2030292 0.33367831 4282121834
-1.5777315 2.2005041 0.3324596 4282121834
-1.5596806 2.1914427 0.33026594 4282121834
-1.5428587 2.183903 0.32831606 4282121834
-1.5329472 2.1860242 0.32782856 4282121834
-1.5234203 2.1878381 0.32734108 4282121834
-1.5112599 2.18661 0.32636613 4282121834
-1.4901431 2.1722281 0.32344127 4282121834
-1.4777032 2.1711116 0.32246631 4282121834
-1.4660488 2.1694212 0.32149133 4282121834
-1.4584676 2.174525 0.32149133 4282121834
-1.4475689 2.1746454 0.32076016 4282121834
-1.4275551 2.1617153 0.31807902 4282121834
-1.4167366 2.1617038 0.31734779 4282121834
-1.403064 2.1564071 0.31588537 4282121834
-1.3955287 2.1612911 0.31588537 4282121834
-1.3847625 2.1611357 0.31515417 4282121834
-1.3669345 2.1489661 0.31271678 4282121834
-1.3530679 2.143652 0.31125432 4282121834
-1.3476838 2.151727 0.3117418 4282121834
-1.3359728 2.1496747 0.31076685 4282121834
-1.3263775 2.1509452 0.31027937 4282121834
-1.3043573 2.1318557 0.30686703 4282121834
-1.2927868 2.1296086 0.30589208 4282121834
-1.2812489 2.1273062 0.30491713 4282121834
-1.2758512 2.1351738 0.3054046 4282121834
-1.2643418 2.1327839 0.30442965 4282121834
-1.2488391 2.1234951 0.30247974 4282121834
-1.2374172 2.1209834 0.30150479 4282121834
-1.2263988 2.1182029 0.30052981 4282121834
-1.218997 2.1224716 0.30052981 4282121834
-1.2060548 2.116154 0.29906741 4282121834
-1.1927986 2.1099827 0.29760498 4282121834
-1.1796013 2.1037443 0.29614252 4282121834
-1.1703205 2.1043797 0.29565504 4282121834
-1.1629682 2.1084518 0.29565504 4282121834
-1.155232 2.1127005 0.29565504 4282121834
-1.1364952 2.0957797 0.29273018 4282121834
-1.1257765 2.0925446 0.29175523 4282121834
-1.1203345 2.0999641 0.29224271 4282121834
-1.1111414 2.1003525 0.29175523 4282121834
-1.10048 2.0969949 0.29078028 4282121834
-1.0858233 2.0867355 0.28883037 4282121834
-1.0730721 2.0799279 0.28736794 4282121834
-1.0658047 2.0836613 0.28736794 4282121834
-1.0585243 2.0873692 0.28736794 4282121834
-1.0494488 2.0875041 0.28688046 4282121834
-1.0333017 2.0733876 0.28444308 4282121834
-1.0207821 2.0663035 0.28298062 4282121834
-1.0104315 2.0625465 0.2820057 4282121834
-1.0049603 2.0696321 0.28249314 4282121834
-0.99600762 2.0695503 0.2820057 4282121834
-0.98450381 2.0640559 0.28078699 4282121834
-0.97086495 2.052953 0.27883708 4282121834
-0.96537703 2.0599246 0.27932456 4282121834
-0.95650899 2.0596809 0.27883708 4282121834
-0.94599473 2.0557938 0.27786213 4282121834
-0.93057704 2.0410213 0.27542472 4282121834
-0.92344725 2.0442569 0.27542472 4282121834
-0.91666365 2.0473077 0.27542472 4282121834
-0.90951109 2.0504951 0.27542472 4282121834
-0.90110916 2.0498652 0.27493724 4282121834
-0.88883632 2.0422337 0.27347484 4282121834
-0.87891489 2.0378785 0.27249986 4282121834
-0.87023592 2.0372832 0.27201241 4282121834
-0.8646664 2.0439646 0.27249986 4282121834
-0.85215765 2.0341539 0.27079371 4282121834
-0.84276962 2.0316157 0.27006248 4282121834
-0.83079469 2.0236726 0.26860005 4282121834
-0.82671517 2.0339165 0.269575 4282121834
-0.81812781 2.033107 0.26908755 4282121834
-0.8113817 2.0358086 0.26908755 4282121834
-0.79407167 2.0127759 0.26567519 4282121834
-0.78704041 2.0155356 0.26567519 4282121834
-0.7803635 2.0202584 0.26591894 4282121834
-0.77224207 2.0191269 0.26543146 4282121834
-0.7641356 2.0179639 0.26494396 4282121834
-0.75151533 2.0057473 0.26299405 4282121834
-0.74139971 2.0010428 0.2620191 4282121834
-0.73475933 2.0034907 0.2620191 4282121834
-0.72911584 2.0097754 0.26250657 4282121834
-0.72244751 2.012182 0.26250657 4282121834
-0.70744753 1.9922438 0.25958171 4282121834
-0.69851625 1.9890822 0.25885051 4282121834
-0.69417405 1.9990093 0.25982547 4282121834
-0.69105923 2.0126855 0.2612879 4282121834
-0.68147659 2.0075667 0.26031294 4282121834
-0.66688681 1.9873493 0.25738806 4282121834
-0.65744627 1.9821284 0.25641313 4282121834
-0.65334386 1.9918426 0.25738806 4282121834
-0.64551067 1.9902216 0.25690058 4282121834
-0.63855898 1.9924629 0.25690058 4282121834
-0.62560815 1.9757547 0.2544632 4282121834
-0.61870801 1.9779264 0.2544632 4282121834
-0.61179948 1.9800742 0.2544632 4282121834
-0.6025669 1.9746029 0.25348827 4282121834
-0.59796107 1.9842972 0.2544632 4282121834
-0.58571357 1.9672436 0.25202581 4282121834
-0.57772291 1.9654673 0.25153834 4282121834
-0.57196528 1.9712847 0.25202581 4282121834
-0.56289518 1.9656357 0.25105089 4282121834
-0.55853391 1.9751323 0.25202581 4282121834
-0.54630148 1.957949 0.24958843 4282121834
-0.53840947 1.9560165 0.24910097 4282121834
-0.53261906 1.9617153 0.24958843 4282121834
-0.52576762 1.9635627 0.24958843 4282121834
-0.51789725 1.9615473 0.24910097 4282121834
-0.5080471 1.9518164 0.24763852 4282121834
-0.49925706 1.9458869 0.24666359 4282121834
-0.49343431 1.9514669 0.24715105 4282121834
-0.48662078 1.9531771 0.24715105 4282121834
-0.48014057 1.9547802 0.24715105 4282121834
-0.47051299 1.9448677 0.2456886 4282121834
-0.46188062 1.9387743 0.24471366 4282121834
-0.45511156 1.9403745 0.24471366 4282121834
-0.44922817 1.9458199 0.24520114 4282121834
-0.44331324 1.9512473 0.2456886 4282121834
-0.43337271 1.9372091 0.2437387 4282121834
-0.42523891 1.930881 0.24276376 4282121834
-0.41933614 1.936234 0.24325122 4282121834
-0.41257527 1.9376858 0.24325122 4282121834
-0.40662169 1.9430003 0.2437387 4282121834
-0.39743733 1.9327415 0.24227627 4282121834
-0.38990363 1.9302251 0.24178879 4282121834
-0.38316301 1.9315746 0.24178879 4282121834
-0.37717754 1.9367971 0.24227627 4282121834
-0.36933115 1.9342669 0.24178879 4282121834
-0.35998759 1.9198725 0.23983888 4282121834
-0.35361949 1.9210557 0.23983888 4282121834
-0.34338644 1.9027429 0.2374015 4282121834
-0.33779225 1.9118078 0.23837645 4282121834
-0.33077228 1.9090056 0.23788899 4282121834
-0.32144949 1.8944919 0.23593907 4282121834
-0.31516573 1.8955474 0.23593907 4282121834
-0.30661231 1.8889058 0.23496412 4282121834
-0.30221656 1.901675 0.23642655 4282121834
-0.29527232 1.9007567 0.23618281 4282121834
-0.28655005 1.8880377 0.23447664 4282121834
-0.28112137 1.896881 0.23545158 4282121834
-0.27369282 1.8899443 0.23447664 4282121834
-0.26709354 1.8908882 0.23447664 4282121834
-0.26049095 1.8918091 0.23447664 4282121834
-0.25335827 1.8887718 0.23398916 4282121834
-0.24683647 1.8876332 0.23374543 4282121834
-0.24049594 1.8904525 0.23398916 4282121834
-0.23340866 1.8873403 0.23350169 4282121834
-0.22729221 1.8920854 0.23398916 4282121834
-0.2183869 1.8731501 0.23155177 4282121834
-0.21229434 1.8778459 0.23203924 4282121834
-0.20693131 1.8864325 0.2330142 4282121834
-0.20160207 1.8989875 0.23447664 4282121834
-0.194492 1.8917469 0.23350169 4282121834
-0.18592654 1.8726604 0.2310643 4282121834
-0.17900963 1.8693459 0.23057681 4282121834
-0.17252134 1.873943 0.2310643 4282121834
-0.16665649 1.8784595 0.23155177 4282121834
-0.16110225 1.8869133 0.23252673 4282121834
-0.1532205 1.8676528 0.23008935 4282121834
-0.14572251 1.8682528 0.23008935 4282121834
-0.13952672 1.8687257 0.23008935 4282121834
-0.13361189 1.8731382 0.23057681 4282121834
-0.1270721 1.8735932 0.23057681 4282121834
-0.11918807 1.858198 0.22862691 4282121834
-0.11197963 1.8467141 0.22716448 4282121834
-0.1055331 1.8470937 0.22716448 4282121834
-0.099620149 1.851398 0.22765194 4282121834
-0.09275838 1.8438041 0.226677 4282121834
-0.086084098 1.8322041 0.22521456 4282121834
-0.079515889 1.828527 0.22472709 4282121834
-0.073611535 1.8327476 0.22521456 4282121834
-0.067358598 1.836961 0.22570205 4282121834
-0.061077137 1.8411529 0.22618952 4282121834
-0.053977709 1.829459 0.22472709 4282121834
-0.04770235 1.8216904 0.22375213 4282121834
-0.041434497 1.8258148 0.2242396 4282121834
-0.035136692 1.8299178 0.22472709 4282121834
-0.028810749 1.833999 0.22521456 4282121834
-0.022629932 1.8261447 0.2242396 4282121834
-0.016221276 1.8222426 0.22375213 4282121834
-0.0099028386 1.8302283 0.22472709 4282121834
-0.0035297216 1.8381922 0.22570205 4282121834
3.207382 -2.5013769 0.49942058 4282121834
3.1689708 -2.4892592 0.4947896 4282121834
3.1384671 -2.4830618 0.4913772 4282121834
3.1084781 -2.4761405 0.4879649 4282121834
3.0843325 -2.4745533 0.48552752 4282121834
3.0602355 -2.4728281 0.48309013 4282121834
3.0207922 -2.4584348 0.47821537 4282121834
2.9845574 -2.4463136 0.47382805 4282121834
2.9602649 -2.4445958 0.47139066 4282121834
2.9333985 -2.439682 0.46846578 4282121834
2.9096467 -2.43716 0.46602839 4282121834
2.8768451 -2.4268222 0.46212861 4282121834
2.8471763 -2.4188557 0.45871624 4282121834
2.8206155 -2.4132934 0.45579138 4282121834
2.7975566 -2.4096782 0.453354 4282121834
2.7711337 -2.4038196 0.45042911 4282121834
2.7417963 -2.3951943 0.44701681 4282121834
2.7095721 -2.3837709 0.44311696 4282121834
2.6893477 -2.3826835 0.44116706 4282121834
2.6662023 -2.3788404 0.43872967 4282121834
2.6456544 -2.3779807 0.43677977 4282121834
2.614203 -2.3654308 0.43287995 4282121834
2.5839205 -2.3544865 0.42922387 4282121834
2.5673215 -2.3549907 0.42776144 4282121834
2.5430455 -2.3491213 0.4250803 4282121834
2.521749 -2.3458154 0.42288667 4282121834
2.4914067 -2.3346817 0.41923055 4282121834
2.4716921 -2.3324649 0.41728067 4282121834
2.4563403 -2.3342414 0.416062 4282121834
2.4410062 -2.3359387 0.41484326 4282121834
2.4228315 -2.3348031 0.41313711 4282121834
2.3833261 -2.3128321 0.40777487 4282121834
2.3592186 -2.3062878 0.40509373 4282121834
2.3454952 -2.3089385 0.40411878 4282121834
2.3289626 -2.3087265 0.40265635 4282121834
2.3044319 -2.2996106 0.39973149 4282121834
2.2781878 -2.2893484 0.39656287 4282121834
2.259419 -2.2855964 0.39461297 4282121834
2.2403018 -2.2821367 0.39266306 4282121834
2.2267795 -2.2842572 0.39168811 4282121834
2.2018266 -2.2752852 0.38876322 4282121834
2.178741 -2.2672126 0.38608211 4282121834
2.162591 -2.2661874 0.38461968 4282121834
2.1437438 -2.2621951 0.38266978 4282121834
2.1249509 -2.2580993 0.38071984 4282121834
2.1089237 -2.2568009 0.37925744 4282121834
2.0821292 -2.243777 0.37584507 4282121834
2.0689037 -2.2451923 0.37487015 4282121834
2.0530131 -2.2436132 0.37340769 4282121834
2.0398293 -2.2448893 0.37243277 4282121834
2.0213418 -2.2402053 0.37048283 4282121834
1.9953531 -2.2262011 0.3670705 4282121834
1.9773993 -2.2209446 0.36512056 4282121834
1.9613584 -2.2192528 0.36365816 4282121834
1.9505931 -2.2234421 0.36317068 4282121834
1.9323887 -2.2182629 0.36122078 4282121834
1.9064522 -2.2039759 0.35780841 4282121834
1.8887835 -2.1982405 0.3558585 4282121834
1.8814836 -2.2044921 0.3558585 4282121834
1.8631259 -2.1992559 0.3539086 4282121834
1.8448322 -2.1939151 0.35195872 4282121834
1.8278744 -2.1899941 0.35025251 4282121834
1.8074266 -2.1786025 0.3475714 4282121834
1.7972863 -2.181834 0.3470839 4282121834
1.7846323 -2.1819479 0.34610897 4282121834
1.7666138 -2.1761448 0.34415907 4282121834
1.748662 -2.170239 0.34220913 4282121834
1.7340138 -2.1667268 0.34074673 4282121834
1.7165604 -2.1603329 0.33879682 4282121834
1.7065499 -2.1631944 0.33830932 4282121834
1.6827009 -2.1491163 0.33514073 4282121834
1.6605687 -2.1361694 0.33221585 4282121834
1.638548 -2.1230948 0.32929099 4282121834
1.6287124 -2.1256502 0.32880351 4282121834
1.6116679 -2.1186833 0.3268536 4282121834
1.5994772 -2.1179595 0.32587865 4282121834
1.5754033 -2.1012938 0.32246631 4282121834
1.5684266 -2.1065066 0.32246631 4282121834
1.5516244 -2.0991976 0.32051641 4282121834
1.5446547 -2.1043315 0.32051641 4282121834
1.5302855 -2.1000845 0.31905395 4282121834
1.5109464 -2.0895929 0.31661656 4282121834
1.4963341 -2.0854399 0.31515417 4282121834
1.4867421 -2.0874164 0.31466666 4282121834
1.4771546 -2.0893514 0.31417918 4282121834
1.4652911 -2.0879955 0.31320426 4282121834
1.442109 -2.0702934 0.30979189 4282121834
1.4281001 -2.0655179 0.30832946 4282121834
1.4186349 -2.0672166 0.30784199 4282121834
1.4102927 -2.0705154 0.30759826 4282121834
1.4030567 -2.0754256 0.30759826 4282121834
1.3803192 -2.0572326 0.3041859 4282121834
1.3687288 -2.0554292 0.30321094 4282121834
1.3593566 -2.0568824 0.3027235 4282121834
1.3499911 -2.0582948 0.30223599 4282121834
1.3431581 -2.0627604 0.30223599 4282121834
1.321223 -2.0438638 0.29882365 4282121834
1.3072935 -2.0386662 0.29736122 4282121834
1.2976819 -2.0400941 0.29687375 4282121834
1.292672 -2.0479686 0.29736122 4282121834
1.2791932 -2.0423746 0.2958988 4282121834
1.2636737 -2.033339 0.29394889 4282121834
1.2503165 -2.0275998 0.29248646 4282121834
1.2435858 -2.0317347 0.29248646 4282121834
1.2368417 -2.0358474 0.29248646 4282121834
1.2235788 -2.0299516 0.291024 4282121834
1.2100194 -2.0241995 0.2895616 4282121834
1.1988958 -2.0215812 0.28858662 4282121834
1.1914785 -2.0259616 0.28858662 4282121834
1.1823986 -2.026679 0.28809914 4282121834
1.1693509 -2.0204856 0.28663671 4282121834
1.1547351 -2.0105813 0.28468683 4282121834
1.1401979 -2.0006022 0.2827369 4282121834
1.1351615 -2.0080261 0.28322437 4282121834
1.1281452 -2.0119765 0.28322437 4282121834
1.1182208 -2.0106976 0.28249314 4282121834
1.1146778 -2.0217361 0.28346813 4282121834
1.1057088 -2.0221312 0.28298062 4282121834
1.0995898 -2.0277236 0.28322437 4282121834
1.0896844 -2.0263045 0.28249314 4282121834
1.0807364 -2.0265927 0.2820057 4282121834
1.0643762 -2.0128043 0.27956831 4282121834
1.0555 -2.0129914 0.27908084 4282121834
1.0484669 -2.0166636 0.27908084 4282121834
1.0396019 -2.016782 0.27859333 4282121834
1.0271354 -2.009793 0.27713093 4282121834
1.0129362 -1.9991997 0.275181 4282121834
1.0023875 -1.995628 0.27420604 4282121834
0.99718499 -2.0026689 0.27469352 4282121834
0.98930955 -2.0043573 0.2744498 4282121834
0.97794527 -1.9988829 0.27323109 4282121834
0.96576482 -1.9915673 0.27176866 4282121834
0.95364761 -1.9841914 0.27030623 4282121834
0.94671559 -1.9875082 0.27030623 4282121834
0.93977231 -1.9908006 0.27030623 4282121834
0.931135 -1.9904726 0.26981872 4282121834
0.91750246 -1.9793029 0.26786885 4282121834
0.90727347 -1.9752778 0.26689389 4282121834
0.9003731 -1.9784327 0.26689389 4282121834
0.89346153 -1.9815634 0.26689389 4282121834
0.88330066 -1.9774203 0.26591894 4282121834
0.87030971 -1.9658173 0.26396903 4282121834
0.86184764 -1.9652076 0.26348156 4282121834
0.85498273 -1.968204 0.26348156 4282121834
0.84619457 -1.9676771 0.26299405 4282121834
0.83966476 -1.9704723 0.26299405 4282121834
0.82540447 -1.9549582 0.26055667 4282121834
0.8151722 -1.950644 0.25958171 4282121834
0.80649984 -1.9499499 0.25909427 4282121834
0.80454469 -1.963635 0.26055667 4282121834
0.79544711 -1.9609129 0.25982547 4282121834
0.7826792 -1.9489408 0.25787556 4282121834
0.77293789 -1.9442822 0.25690058 4282121834
0.76614654 -1.9469683 0.25690058 4282121834
0.75934535 -1.949631 0.25690058 4282121834
0.75253546 -1.9522696 0.25690058 4282121834
0.73015094 -1.9140806 0.25153834 4282121834
0.71925879 -1.9054745 0.25007591 4282121834
0.71088159 -1.9043785 0.24958843 4282121834
0.70456249 -1.9067254 0.24958843 4282121834
0.69891769 -1.9109156 0.24983218 4282121834
0.68819088 -1.9021434 0.24836974 4282121834
0.67854059 -1.8971767 0.2473948 4282121834
0.67224544 -1.8994164 0.2473948 4282121834
0.66692293 -1.9054987 0.24788228 4282121834
0.65702116 -1.8984354 0.24666359 4282121834
0.64492005 -1.8858043 0.24471366 4282121834
0.63833314 -1.8880441 0.24471366 4282121834
0.63299733 -1.8940262 0.24520114 4282121834
0.62638199 -1.8962243 0.24520114 4282121834
0.618527 -1.8946251 0.24471366 4282121834
0.61069101 -1.892994 0.2442262 4282121834
0.6004622 -1.8837663 0.24276376 4282121834
0.59388286 -1.8858508 0.24276376 4282121834
0.58729637 -1.8879124 0.24276376 4282121834
0.57953662 -1.8861557 0.24227627 4282121834
0.57179654 -1.8843681 0.24178879 4282121834
0.56293625 -1.8787464 0.24081384 4282121834
0.55637473 -1.8806999 0.24081384 4282121834
0.55124861 -1.8863454 0.24130133 4282121834
0.5435605 -1.8844434 0.24081384 4282121834
0.5340454 -1.8747808 0.23935141 4282121834
0.52502304 -1.8690809 0.23837645 4282121834
0.52167642 -1.8823802 0.23983888 4282121834
0.51196182 -1.8727007 0.23837645 4282121834
0.50438809 -1.8706431 0.23788899 4282121834
0.49581486 -1.8647188 0.23691402 4282121834
0.48862118 -1.8625124 0.23642655 4282121834
0.48112246 -1.8603629 0.23593907 4282121834
0.47560647 -1.8658781 0.23642655 4282121834
0.46683139 -1.8599073 0.23545158 4282121834
0.45795351 -1.8518902 0.23423289 4282121834
0.44913754 -1.8438339 0.2330142 4282121834
0.44362473 -1.8492513 0.23350169 4282121834
0.43684366 -1.8508649 0.23350169 4282121834
0.42993116 -1.8504447 0.23325793 4282121834
0.42258447 -1.8480639 0.23277046 4282121834
0.41613066 -1.8495278 0.23277046 4282121834
0.40795636 -1.8432164 0.2317955 4282121834
0.40236422 -1.8485086 0.232283 4282121834
0.39507836 -1.8460195 0.2317955 4282121834
0.38536304 -1.8318467 0.2298456 4282121834
0.37816253 -1.8292928 0.22935812 4282121834
0.37256494 -1.8344924 0.2298456 4282121834
0.36732394 -1.841622 0.23057681 4282121834
0.35974869 -1.8370488 0.2298456 4282121834
0.35108602 -1.8265969 0.22838317 4282121834
0.34429038 -1.8238498 0.22789569 4282121834
0.33792204 -1.8250405 0.22789569 4282121834
0.33190373 -1.8281621 0.22813943 4282121834
0.32485369 -1.8274119 0.22789569 4282121834
0.31742811 -1.8206567 0.22692074 4282121834
0.3094002 -1.8119698 0.22570205 4282121834
0.30471 -1.8228283 0.22692074 4282121834
0.29738644 -1.8200147 0.22643325 4282121834
0.29103178 -1.8210417 0.22643325 4282121834
0.28283474 -1.8102787 0.22497083 4282121834
0.27531558 -1.8034054 0.22399586 4282121834
0.27018994 -1.812209 0.22497083 4282121834
0.26443401 -1.81707 0.22545831 4282121834
0.25808981 -1.8179821 0.22545831 4282121834
0.24960719 -1.8011312 0.22326466 4282121834
0.24252182 -1.7960898 0.22253343 4282121834
0.23702708 -1.8028299 0.22326466 4282121834
0.23066907 -1.8056557 0.2235084 4282121834
0.22436492 -1.8064498 0.2235084 4282121834
0.21663126 -1.7953972 0.22204597 4282121834
0.21021374 -1.7921624 0.22155848 4282121834
0.20440534 -1.7968302 0.22204597 4282121834
0.1988813 -1.8014443 0.22253343 4282121834
0.19175254 -1.8002207 0.22228971 4282121834
0.18445078 -1.7910058 0.22107102 4282121834
0.17780487 -1.787688 0.22058353 4282121834
0.17187585 -1.7882677 0.22058353 4282121834
0.1663644 -1.7967635 0.22155848 4282121834
0.15956332 -1.7914014 0.22082727 4282121834
0.15246285 -1.7820581 0.21960858 4282121834
0.14786465 -1.802364 0.22204597 4282121834
0.14187786 -1.81081 0.22302091 4282121834
0.13616915 -1.8152297 0.2235084 4282121834
0.12954897 -1.8117336 0.22302091 4282121834
0.12255064 -1.8022723 0.22180222 4282121834
0.11517966 -1.7908233 0.22033979 4282121834
0.10965096 -1.8031031 0.22180222 4282121834
0.10335602 -1.8034748 0.22180222 4282121834
0.096846938 -1.7998602 0.22131474 4282121834
0.090364344 -1.7962221 0.22082727 4282121834
0.083722271 -1.788595 0.21985231 4282121834
0.077822149 -1.7968091 0.22082727 4282121834
0.071549371 -1.7970698 0.22082727 4282121834
0.065276161 -1.7973087 0.22082727 4282121834
0.058741655 -1.7895895 0.21985231 4282121834
0.052377801 -1.7858151 0.21936484 4282121834
0.046143986 -1.785987 0.21936484 4282121834
0.040221117 -1.7861303 0.21936484 4282121834
0.034137331 -1.7941988 0.22033979 4282121834
0.027317101 -1.778433 0.21838988 4282121834
0.021061666 -1.7745476 0.21790241 4282121834
0.014933893 -1.7825505 0.21887736 4282121834
0.0086920876 -1.7786216 0.21838988 4282121834
0.0024945242 -1.7865814 0.21936484 4282121834
-0.0033995858 -1.7706991 0.21741492 4282121834
-0.0095802965 -1.7706764 0.21741492 4282121834
-0.015831569 -1.7785723 0.21838988 4282121834
-0.022040108 -1.7785063 0.21838988 4282121834
-0.028247958 -1.7784184 0.21838988 4282121834
-0.034610823 -1.770364 0.21741492 4282121834
-0.040390674 -1.7662704 0.21692745 4282121834
-0.046764944 -1.7740563 0.21790241 4282121834
-0.052957531 -1.7738824 0.21790241 4282121834
-0.059192561 -1.7657404 0.21692745 4282121834
-0.065062098 -1.757588 0.2159525 4282121834
-0.0713576 -1.7613171 0.21643998 4282121834
-0.077545539 -1.7690035 0.21741492 4282121834
-0.083532371 -1.7647563 0.21692745 4282121834
-0.089893617 -1.768419 0.21741492 4282121834
-0.09520448 -1.7522372 0.21546502 4282121834
-0.10154963 -1.7558577 0.2159525 4282121834
-0.10737176 -1.7555113 0.2159525 4282121834
-0.11375504 -1.7590878 0.21643998 4282121834
-0.11989477 -1.75868 0.21643998 4282121834
-0.12518144 -1.7463706 0.21497753 4282121834
-0.13158119 -1.7459 0.21497753 4282121834
-0.13798694 -1.7493881 0.21546502 4282121834
-0.14441866 -1.7528526 0.2159525 4282121834
-0.15053622 -1.7523377 0.2159525 4282121834
-0.15559152 -1.7399385 0.21449007 4282121834
-0.16203134 -1.7433378 0.21497753 4282121834
-0.16811557 -1.7427615 0.21497753 4282121834
-0.1745932 -1.7461146 0.21546502 4282121834
-0.18068705 -1.7454946 0.21546502 4282121834
-0.18520872 -1.7330427 0.21400258 4282121834
-0.19169277 -1.7363319 0.21449007 4282121834
-0.19730313 -1.7317075 0.21400258 4282121834
-0.20427296 -1.7388942 0.21497753 4282121834
-0.21081883 -1.742112 0.21546502 4282121834
-0.2149356 -1.7256066 0.2135151 4282121834
-0.2214621 -1.728784 0.21400258 4282121834
-0.2274956 -1.7280003 0.21400258 4282121834
-0.23375571 -1.7311709 0.21449007 4282121834
-0.23816225 -1.7185465 0.21302763 4282121834
-0.23995352 -1.6902319 0.20961528 4282121834
-0.24757822 -1.6991628 0.21083398 4282121834
-0.25292161 -1.6943617 0.21034651 4282121834
-0.26093164 -1.7051967 0.21180893 4282121834
-0.26626816 -1.700353 0.21132146 4282121834
-0.26969025 -1.6837325 0.20937155 4282121834
-0.27556577 -1.6827809 0.20937155 4282121834
-0.28209361 -1.6857244 0.20985903 4282121834
-0.29065174 -1.7003831 0.21180893 4282121834
-0.29522029 -1.6915361 0.21083398 4282121834
-0.29874122 -1.6788214 0.20937155 4282121834
-0.30359828 -1.6739151 0.20888408 4282121834
-0.31088385 -1.6806531 0.20985903 4282121834
-0.31601277 -1.6756562 0.20937155 4282121834
-0.32260922 -1.6784418 0.20985903 4282121834
-0.32770318 -1.6734092 0.20937155 4282121834
-0.33276594 -1.6683617 0.20888408 4282121834
-0.33966941 -1.6710213 0.20937155 4282121834
-0.34550014 -1.6698256 0.20937155 4282121834
-0.35378101 -1.6802644 0.21083398 4282121834
-0.3571493 -1.6673728 0.20937155 4282121834
-0.36127719 -1.6583575 0.20839658 4282121834
-0.36849031 -1.6649032 0.20937155 4282121834
-0.37429991 -1.6636068 0.20937155 4282121834
-0.38158306 -1.6700974 0.21034651 4282121834
-0.38349709 -1.6492847 0.20790912 4282121834
-0.39033228 -1.6537999 0.20864034 4282121834
-0.39581439 -1.6524965 0.20864034 4282121834
-0.405624 -1.6664648 0.21059024 4282121834
-0.40934655 -1.6553317 0.20937155 4282121834
-0.41290173 -1.6462634 0.20839658 4282121834
-0.4176667 -1.6409645 0.20790912 4282121834
-0.42488113 -1.6452628 0.20864034 4282121834
-0.43112469 -1.6456898 0.20888408 4282121834
-0.43737638 -1.6460935 0.20912781 4282121834
-0.44082254 -1.6348962 0.20790912 4282121834
-0.44705045 -1.6352621 0.20815286 4282121834
-0.45434621 -1.6394309 0.20888408 4282121834
-0.46221331 -1.6454794 0.20985903 4282121834
-0.46904153 -1.6476744 0.21034651 4282121834
-0.47065386 -1.632758 0.20864034 4282121834
-0.47606578 -1.6311882 0.20864034 4282121834
-0.48373058 -1.6351429 0.20937155 4282121834
-0.48972028 -1.6333591 0.20937155 4282121834
-0.49426553 -1.6278408 0.20888408 4282121834
-0.49877784 -1.6223106 0.20839658 4282121834
-0.50533432 -1.6244388 0.20888408 4282121834
-0.51219392 -1.6264517 0.20937155 4282121834
-0.51999485 -1.63231 0.21034651 4282121834
-0.52625865 -1.6303014 0.21034651 4282121834
-0.52796555 -1.6172248 0.20888408 4282121834
-0.53485298 -1.6191417 0.20937155 4282121834
-0.54050142 -1.617265 0.20937155 4282121834
-0.54868686 -1.6228905 0.21034651 4282121834
-0.55563301 -1.6247219 0.21083398 4282121834
-0.55740744 -1.6115162 0.20937155 4282121834
-0.56331044 -1.6094624 0.20937155 4282121834
-0.57119352 -1.6130008 0.21010277 4282121834
-0.58083528 -1.6222104 0.2115652 4282121834
-0.58649415 -1.6201731 0.2115652 4282121834
-0.58777249 -1.6070335 0.21010277 4282121834
-0.59309864 -1.6050755 0.21010277 4282121834
-0.60147578 -1.6104338 0.21107772 4282121834
-0.60779464 -1.6101817 0.21132146 4282121834
-0.61482662 -1.6117597 0.21180893 4282121834
-0.61759287 -1.6021949 0.21083398 4282121834
-0.62030011 -1.5926304 0.20985903 4282121834
-0.62758774 -1.5940403 0.21034651 4282121834
-0.63754994 -1.6029071 0.21180893 4282121834
-0.64314145 -1.6006718 0.21180893 4282121834
-0.6469534 -1.5948513 0.21132146 4282121834
-0.65101135 -1.5889095 0.21083398 4282121834
-0.65627688 -1.5867419 0.21083398 4282121834
-0.66695893 -1.5951991 0.21229641 4282121834
-0.67406762 -1.5965188 0.21278389 4282121834
-0.6765222 -1.5868518 0.21180893 4282121834
-0.68178076 -1.5845996 0.21180893 4282121834
-0.68888962 -1.5858517 0.21229641 4282121834
-0.69920492 -1.594345 0.21375884 4282121834
-0.7047658 -1.5918946 0.21375884 4282121834
-0.70545852 -1.5785509 0.21229641 4282121834
-0.71259713 -1.5796976 0.21278389 4282121834
-0.72139704 -1.5844272 0.21375884 4282121834
-0.73023891 -1.5891145 0.21473379 4282121834
-0.73745185 -1.5901573 0.21522127 4282121834
-0.73822463 -1.5766572 0.21375884 4282121834
-0.7420277 -1.5704809 0.21327138 4282121834
-0.75263095 -1.5786325 0.21473379 4282121834
-0.76302314 -1.586862 0.21619622 4282121834
-0.77288973 -1.593119 0.21741492 4282121834
-0.52207601 -1.0572697 0.1447808 4282121834
-0.52664852 -1.0572177 0.14502454 4282121834
-0.51982033 -1.0339973 0.14209966 4282121834
-0.51875883 -1.0234147 0.14088097 4282121834
-0.51492292 -1.007548 0.13893107 4282121834
-0.51826102 -1.0058349 0.13893107 4282121834
-0.52560675 -1.0109737 0.13990602 4282121834
-0.52562046 -1.0020088 0.13893107 4282121834
-0.53021777 -1.0018302 0.1391748 4282121834
-0.53260273 -0.99831498 0.13893107 4282121834
-0.53232229 -0.98945713 0.13795611 4282121834
-0.53749311 -0.99117643 0.13844359 4282121834
-0.54475921 -0.99626106 0.13941854 4282121834
-0.54631639 -0.99087679 0.13893107 4282121834
-0.54608524 -0.98192835 0.13795611 4282121834
-0.55145121 -0.98347908 0.13844359 4282121834
-0.55781156 -0.98673236 0.1391748 4282121834
-0.55928665 -0.98132986 0.13868731 4282121834
-0.5627088 -0.97937161 0.13868731 4282121834
-0.55700159 -0.96203882 0.13649367 4282121834
-0.55735445 -0.95494539 0.13576247 4282121834
-0.56152445 -0.95480287 0.13600621 4282121834
-0.57092744 -0.96308267 0.13746862 4282121834
-0.57530427 -0.96278781 0.13771236 4282121834
-0.57558876 -0.95567244 0.13698116 4282121834
-0.58304167 -0.96044505 0.13795611 4282121834
-0.58448529 -0.9549154 0.13746862 4282121834
-0.59511065 -0.96469575 0.1391748 4282121834
-0.60895562 -0.97947091 0.14161219 4282121834
-0.59972292 -0.9571532 0.13868731 4282121834
-0.60412031 -0.95673251 0.13893107 4282121834
-0.61155123 -0.96142352 0.13990602 4282121834
-0.61811715 -0.96429682 0.14063723 4282121834
-0.61609405 -0.95379597 0.13941854 4282121834
-0.62050247 -0.95330316 0.13966228 4282121834
-0.62600386 -0.95445132 0.14014976 4282121834
-0.63042623 -0.95391643 0.1403935 4282121834
-0.63705301 -0.95666683 0.14112473 4282121834
-0.64387381 -0.9592703 0.14185593 4282121834
-0.63387394 -0.93728453 0.13893107 4282121834
-1.0549775 -1.5367254 0.22887065 4282121834
-1.0659815 -1.5411966 0.23008935 4282121834
-1.0756249 -1.5441687 0.2310643 4282121834
-1.0764474 -1.5339049 0.23008935 4282121834
-1.0795032 -1.5268962 0.22960186 4282121834
-1.0894331 -1.5295863 0.23057681 4282121834
-1.1017088 -1.5354517 0.23203924 4282121834
-1.1070623 -1.5315962 0.23203924 4282121834
-1.1100645 -1.5245134 0.23155177 4282121834
-1.113296 -1.5172336 0.2310643 4282121834
-1.1233051 -1.5197235 0.23203924 4282121834
-1.1380872 -1.528531 0.23398916 4282121834
-1.1434158 -1.5245489 0.23398916 4282121834
-1.1439443 -1.5142127 0.2330142 4282121834
-1.1513627 -1.513571 0.23350169 4282121834
-1.1614687 -1.5158454 0.23447664 4282121834
-1.1764555 -1.5243541 0.23642655 4282121834
-1.1795975 -1.5168979 0.23593907 4282121834
-1.1824371 -1.5096453 0.23545158 4282121834
-1.1876999 -1.5055084 0.23545158 4282121834
-1.2000933 -1.5108887 0.23691402 4282121834
-1.2090805 -1.5113403 0.23764524 4282121834
-1.2218217 -1.5163851 0.23910768 4282121834
-1.2196021 -1.5028623 0.23764524 4282121834
-1.2210717 -1.4939853 0.23691402 4282121834
-1.2250178 -1.4881814 0.23667029 4282121834
-1.2200698 -1.47167 0.23472038 4282121834
-1.234105 -1.4780688 0.23642655 4282121834
-1.2313359 -1.464851 0.23496412 4282121834
-1.2390069 -1.4635739 0.23545158 4282121834
-1.2492597 -1.4652824 0.23642655 4282121834
-1.2595392 -1.4669374 0.2374015 4282121834
-1.2672491 -1.465535 0.23788899 4282121834
-1.26975 -1.4581081 0.2374015 4282121834
-1.2774495 -1.4566523 0.23788899 4282121834
-1.2877827 -1.4581357 0.23886393 4282121834
-1.2968224 -1.4580816 0.23959514 4282121834
-1.310106 -1.4621894 0.24105757 4282121834
-1.3122885 -1.4548888 0.2405701 4282121834
-1.3213633 -1.4547074 0.24130133 4282121834
-1.3304521 -1.4544805 0.24203253 4282121834
-1.3462807 -1.4615079 0.24398245 4282121834
-1.3486741 -1.4538888 0.24349497 4282121834
-1.3537413 -1.4491719 0.24349497 4282121834
-1.3615116 -1.4473296 0.24398245 4282121834
-1.3679206 -1.4440094 0.2442262 4282121834
-1.3795515 -1.4466481 0.24544489 4282121834
-1.3884653 -1.4463613 0.24617608 4282121834
-1.3854772 -1.4327012 0.24471366 4282121834
-1.3976452 -1.4347228 0.24593236 4282121834
-1.4040345 -1.4312526 0.24617608 4282121834
-1.4215777 -1.4390528 0.24836974 4282121834
-1.4249424 -1.4329232 0.248126 4282121834
-1.428282 -1.4267871 0.24788228 4282121834
-1.4374816 -1.4259869 0.24861349 4282121834
-1.4509351 -1.4293193 0.25007591 4282121834
-1.4573346 -1.4256339 0.25031966 4282121834
-1.4722697 -1.4302202 0.25202581 4282121834
-1.4758239 -1.4236943 0.25178206 4282121834
-1.4793513 -1.417161 0.25153834 4282121834
-1.4842891 -1.4119884 0.25153834 4282121834
-1.5007527 -1.4177043 0.25348827 4282121834
-1.5056926 -1.4124566 0.25348827 4282121834
-1.5106139 -1.4071921 0.25348827 4282121834
-1.515272 -1.4021749 0.25348827 4282121834
-1.5391594 -1.4143382 0.25665686 4282121834
-1.5455528 -1.4102951 0.25690058 4282121834
-1.5534085 -1.4075574 0.25738806 4282121834
-1.5553613 -1.3994704 0.25690058 4282121834
-1.5631971 -1.3966781 0.25738806 4282121834
-1.5740027 -1.3964829 0.25836304 4282121834
-1.5878049 -1.3988535 0.25982547 4282121834
-1.5986542 -1.3985311 0.26080042 4282121834
-1.5977743 -1.3874557 0.25982547 4282121834
-1.6143913 -1.392522 0.26177537 4282121834
-1.6222576 -1.3894613 0.26226285 4282121834
-1.6331466 -1.3889341 0.2632378 4282121834
-1.647085 -1.3909096 0.26470023 4282121834
-1.6458455 -1.3800497 0.26372528 4282121834
-1.6567551 -1.3793769 0.26470023 4282121834
-1.6676799 -1.3786446 0.26567519 4282121834
-1.6816882 -1.3803719 0.26713762 4282121834
-1.695729 -1.3820179 0.26860005 4282121834
-1.6943707 -1.3710951 0.26762509 4282121834
-1.7022414 -1.3676587 0.26811257 4282121834
-1.7132121 -1.3666606 0.26908755 4282121834
-1.7304212 -1.3705319 0.27103746 4282121834
-1.7416754 -1.3690875 0.27201241 4282121834
-1.7401842 -1.3581142 0.27103746 4282121834
-1.751191 -1.3568949 0.27201241 4282121834
-1.7682667 -1.3607655 0.27396232 4282121834
-1.7840471 -1.363021 0.27566847 4282121834
-1.7919574 -1.3591844 0.27615595 4282121834
-1.787177 -1.3457562 0.27469352 4282121834
-1.8029928 -1.3478297 0.2763997 4282121834
-1.8411623 -1.366371 0.28151822 4282121834
-1.8523134 -1.3646455 0.28249314 4282121834
-1.8634746 -1.3628592 0.28346813 4282121834
-1.8617953 -1.3516806 0.28249314 4282121834
-1.8761649 -1.3521372 0.2839556 4282121834
-1.8905597 -1.3525102 0.285418 4282121834
-1.9082175 -1.3550978 0.28736794 4282121834
-1.9194263 -1.3530033 0.28834289 4282121834
-1.9208848 -1.3440185 0.28785542 4282121834
-1.9288253 -1.3395703 0.28834289 4282121834
-1.940027 -1.3373357 0.28931785 4282121834
-1.9610667 -1.3417649 0.29175523 4282121834
-1.9723068 -1.3393726 0.29273018 4282121834
-1.9769704 -1.3324794 0.29273018 4282121834
-1.9816097 -1.3255702 0.29273018 4282121834
-2.0027626 -1.329625 0.2951676 4282121834
-2.0142536 -1.3266431 0.29614252 4282121834
-2.028842 -1.3261205 0.29760498 4282121834
-2.0334589 -1.3190304 0.29760498 4282121834
-2.041389 -1.3140731 0.29809242 4282121834
-2.0560009 -1.3133516 0.29955488 4282121834
-2.0737562 -1.3150309 0.30150479 4282121834
-2.0850544 -1.312013 0.30247974 4282121834
-2.0896218 -1.3047262 0.30247974 4282121834
-2.1042881 -1.3036976 0.30394217 4282121834
-2.1189728 -1.3025815 0.3054046 4282121834
-2.1302857 -1.2993116 0.30637956 4282121834
-2.1517913 -1.3021456 0.30881694 4282121834
-2.1495163 -1.2905385 0.30784199 4282121834
-2.1642408 -1.2891226 0.30930442 4282121834
-2.1823993 -1.2896397 0.31125432 4282121834
-2.1988754 -1.2890414 0.31296051 4282121834
-2.2033615 -1.281358 0.31296051 4282121834
-2.2043824 -1.2716745 0.31247303 4282121834
-2.201916 -1.2600287 0.31149808 4282121834
-2.2097535 -1.2542948 0.31198555 4282121834
-2.2314162 -1.2563124 0.31442294 4282121834
-2.2496531 -1.2562587 0.31637284 4282121834
-2.2470782 -1.2445511 0.31539789 4282121834
-2.2601087 -1.2414778 0.31661656 4282121834
-2.2801173 -1.2421283 0.31881022 4282121834
-2.2966647 -1.2407663 0.32051641 4282121834
-2.3097308 -1.2374291 0.32173508 4282121834
-2.3175421 -1.2312223 0.32222256 4282121834
-2.3323638 -1.2286756 0.32368499 4282121834
-2.3540189 -1.2301282 0.3261224 4282121834
-2.3653486 -1.2255565 0.32709733 4282121834
-2.383738 -1.2245495 0.32904723 4282121834
-2.3897669 -1.2171221 0.32929099 4282121834
-2.4010887 -1.2123516 0.33026594 4282121834
-2.4266083 -1.2146248 0.33319083 4282121834
-2.4415023 -1.2114413 0.33465323 4282121834
-2.456404 -1.2081681 0.33611569 4282121834
-2.4641747 -1.2013266 0.33660313 4282121834
-2.4844396 -1.2004907 0.33879682 4282121834
-2.4975672 -1.1960975 0.3400155 4282121834
-2.5160739 -1.1941813 0.34196541 4282121834
-2.5345972 -1.192151 0.34391531 4282121834
-2.5333455 -1.1807803 0.34318411 4282121834
-2.5534656 -1.1798668 0.34537774 4282121834
-2.568398 -1.1759044 0.3468402 4282121834
-2.5993979 -1.1796862 0.35049626 4282121834
-2.6200001 -1.1774745 0.35268989 4282121834
-2.6132135 -1.1634774 0.35122749 4282121834
-2.6354215 -1.1623597 0.35366488 4282121834
-2.6540153 -1.1595111 0.35561478 4282121834
-2.6817305 -1.1604886 0.35878339 4282121834
-2.7040105 -1.1589406 0.36122078 4282121834
-2.7080398 -1.1494946 0.36122078 4282121834
-2.7230153 -1.1446502 0.36268318 4282121834
-2.7489862 -1.1442932 0.36560807 4282121834
-2.7639756 -1.1392292 0.3670705 4282121834
-2.786315 -1.1370738 0.36950788 4282121834
-2.8121552 -1.1367558 0.37243277 4282121834
-2.8435526 -1.1384916 0.37608883 4282121834
-2.8714995 -1.1380677 0.37925744 4282121834
-2.8978293 -1.1362305 0.3821823 4282121834
-2.9237871 -1.1352366 0.38510716 4282121834
-2.9314377 -1.1264477 0.38559461 4282121834
-2.9464848 -1.1204422 0.38705707 4282121834
-2.9726729 -1.1185392 0.38998193 4282121834
-2.9951634 -1.1150811 0.39241934 4282121834
-3.0176644 -1.1114807 0.39485672 4282121834
-3.0252564 -1.1022995 0.3953442 4282121834
-3.0477607 -1.0984634 0.39778158 4282121834
-3.0740144 -1.0958173 0.40070644 4282121834
-3.1002867 -1.0929998 0.4036313 4282121834
-3.1226373 -1.0892516 0.40606871 4282121834
-3.1339273 -1.0809332 0.40704364 4282121834
-3.1641734 -1.0784056 0.410456 4282121834
-3.1850364 -1.0725024 0.41264963 4282121834
-3.2130594 -1.0700887 0.41581824 4282121834
-3.2279029 -1.0631546 0.41728067 4282121834
-3.2466953 -1.0567951 0.41923055 4282121834
-3.2730415 -1.0527493 0.42215544 4282121834
-3.2956147 -1.0473307 0.42459282 4282121834
-3.3297365 -1.0447525 0.42849267 4282121834
-3.3599083 -1.0413504 0.431905 4282121834
-3.3635228 -1.0296165 0.431905 4282121834
-3.3689966 -1.0184437 0.43214872 4282121834
-3.3801396 -1.0089486 0.43312368 4282121834
-3.383467 -0.99773389 0.43312368 4282121834
-3.3793049 -0.98369879 0.43214872 4282121834
-3.367286 -0.96809906 0.43019882 4282121834
-3.3630059 -0.95417082 0.42922387 4282121834
-3.362493 -0.94135553 0.42873639 4282121834
-3.3657582 -0.92961317 0.42873639 4282121834
-3.3613217 -0.91577148 0.42776144 4282121834
-3.3453271 -0.89888155 0.42532405 4282121834
-3.3407688 -0.8851648 0.42434907 4282121834
-3.3476794 -0.87450135 0.42483655 4282121834
-3.3467166 -0.86240447 0.42434907 4282121834
-3.3458586 -0.84973961 0.42386162 4282121834
-3.3256955 -0.83227289 0.42093676 4282121834
-3.3287239 -0.82007718 0.42093676 4282121834
-3.3198507 -0.80622405 0.4194743 4282121834
-3.3265061 -0.79555404 0.41996178 4282121834
-3.3292627 -0.78393745 0.41996178 4282121834
-3.3127744 -0.76725155 0.4175244 4282121834
-3.3094945 -0.75493723 0.41679317 4282121834
-3.3062992 -0.7420761 0.416062 4282121834
-3.312746 -0.73138547 0.41654944 4282121834
-3.3115246 -0.7183978 0.416062 4282121834
-3.3041816 -0.70534015 0.41484326 4282121834
-3.2988524 -0.69217139 0.41386834 4282121834
-3.3012486 -0.68065196 0.41386834 4282121834
-3.3036044 -0.66912425 0.41386834 4282121834
-3.3059201 -0.6575883 0.41386834 4282121834
-3.2887127 -0.64223969 0.41143093 4282121834
-3.287035 -0.63000941 0.41094348 4282121834
-3.2814105 -0.61706412 0.4099685 4282121834
-3.2912471 -0.60762066 0.41094348 4282121834
-3.2913947 -0.59577465 0.41069973 4282121834
-3.273807 -0.58138561 0.40826234 4282121834
-3.2680933 -0.56802285 0.40728739 4282121834
-3.2660449 -0.55651534 0.40679988 4282121834
-3.271884 -0.54576451 0.40728739 4282121834
-3.2659321 -0.53306168 0.40631241 4282121834
-3.2560112 -0.51978058 0.40485001 4282121834
-3.2460377 -0.50657517 0.40338758 4282121834
-3.2478726 -0.49467438 0.40338758 4282121834
-3.2535067 -0.48391819 0.40387502 4282121834
-3.2473178 -0.47141832 0.4029001 4282121834
-3.2332199 -0.45785269 0.40095019 4282121834
-3.2308655 -0.44602081 0.40046272 4282121834
-3.2362614 -0.4358342 0.40095019 4282121834
-3.237689 -0.42510062 0.40095019 4282121834
-3.2352149 -0.41329241 0.40046272 4282121834
-3.224818 -0.40052953 0.39900026 4282121834
-3.2183137 -0.38831913 0.39802533 4282121834
-3.2197151 -0.37652075 0.39802533 4282121834
-3.22101 -0.36527947 0.39802533 4282121834
-3.2183187 -0.35360011 0.39753783 4282121834
-3.2017677 -0.34047541 0.3953442 4282121834
-3.1862328 -0.3169055 0.39315054 4282121834
-3.1773863 -0.30538812 0.39193183 4282121834
-3.1803582 -0.2950331 0.39217559 4282121834
-3.1774638 -0.28302222 0.39168811 4282121834
-3.2140341 -0.27497488 0.3960754 4282121834
-3.2684388 -0.2675668 0.40265635 4282121834
-3.3386188 -0.26158309 0.4111872 4282121834
-3.3731644 -0.25244519 0.41533077 4282121834
-3.3541825 -0.23984201 0.41289338 4282121834
-3.3985708 -0.23109494 0.41825563 4282121834
-3.4429379 -0.22204168 0.42361787 4282121834
-3.5031717 -0.21303684 0.43093005 4282121834
-3.5454769 -0.20381099 0.43604854 4282121834
-3.5877934 -0.19367991 0.44116706 4282121834
-3.6280987 -0.18315661 0.44604182 4282121834
-3.6763058 -0.17272691 0.45189157 4282121834
-3.8003993 -0.15197593 0.46700338 4282121834
-3.8286796 -0.13972256 0.47041571 4282121834
-3.9605005 -0.11754503 0.48650244 4282121834
0.0034888641 1.8173432 0.28783944 4282121834
0.0095874062 1.8311492 0.29002953 4282121834
0.015795318 1.8469098 0.2925325 4282121834
0.022076108 1.8330168 0.29034239 4282121834
0.028350407 1.8250279 0.28909093 4282121834
0.034721255 1.8249178 0.28909093 4282121834
0.041225098 1.8307103 0.29002953 4282121834
0.047295362 1.8305634 0.29002953 4282121834
0.053337075 1.8185401 0.28815234 4282121834
0.059685126 1.8183428 0.28815234 4282121834
0.065959878 1.8161492 0.28783944 4282121834
0.072217315 1.821842 0.28877807 4282121834
0.078661032 1.8235524 0.28909093 4282121834
0.084565461 1.8134005 0.28752658 4282121834
0.090697572 1.8091486 0.28690085 4282121834
0.097327426 1.8088039 0.28690085 4282121834
0.10330214 1.8025367 0.28596222 4282121834
0.10904039 1.7982408 0.28533649 4282121834
0.11480974 1.789964 0.28408504 4282121834
0.12047938 1.7856314 0.28345928 4282121834
0.12667875 1.7891631 0.28408504 4282121834
0.13409494 1.8044697 0.28658798 4282121834
0.13962619 1.7941434 0.28502363 4282121834
0.1449277 1.7818317 0.28314641 4282121834
0.15131405 1.7832832 0.28345928 4282121834
0.15718982 1.7788088 0.28283355 4282121834
0.16412152 1.7861177 0.28408504 4282121834
0.16929416 1.7776977 0.28283355 4282121834
0.17549807 1.7770959 0.28283355 4282121834
0.18310769 1.7902284 0.28502363 4282121834
0.18873255 1.7836851 0.28408504 4282121834
0.19431226 1.7771244 0.28314641 4282121834
0.20117956 1.7823241 0.28408504 4282121834
0.20572092 1.769874 0.28220782 4282121834
0.21142745 1.7652223 0.28158206 4282121834
0.21855463 1.7723159 0.28283355 4282121834
0.22722553 1.7911389 0.28596222 4282121834
0.23168877 1.7766234 0.28377217 4282121834
0.23605339 1.7620983 0.28158206 4282121834
0.24166425 1.7573498 0.28095633 4282121834
0.24890131 1.7643195 0.28220782 4282121834
0.25760213 1.7810354 0.28502363 4282121834
0.26468676 1.7859875 0.28596222 4282121834
0.26823977 1.7694752 0.28345928 4282121834
0.27471814 1.7704802 0.28377217 4282121834
0.28120509 1.7714616 0.28408504 4282121834
0.2883369 1.7763186 0.28502363 4282121834
0.2951819 1.7791989 0.28564936 4282121834
0.29875025 1.7625768 0.28314641 4282121834
0.30493057 1.7635227 0.28345928 4282121834
0.30936655 1.7527213 0.28189492 4282121834
0.31727645 1.7633507 0.28377217 4282121834
0.32271704 1.7583464 0.28314641 4282121834
0.32739979 1.7494425 0.28189492 4282121834
0.3320227 1.7405276 0.28064346 4282121834
0.33922747 1.7451752 0.28158206 4282121834
0.34570053 1.7459184 0.28189492 4282121834
0.35109866 1.7428257 0.28158206 4282121834
0.35876724 1.74933 0.28283355 4282121834
0.36527544 1.7500007 0.28314641 4282121834
0.37209737 1.7505823 0.28345928 4282121834
0.37987521 1.756996 0.28471076 4282121834
0.38569999 1.7557266 0.28471076 4282121834
0.39096561 1.7505137 0.28408504 4282121834
0.3948876 1.7395064 0.28252068 4282121834
0.40273213 1.7458171 0.28377217 4282121834
0.40882415 1.7444005 0.28377217 4282121834
0.41719767 1.7525712 0.28533649 4282121834
0.41959989 1.7357435 0.28283355 4282121834
0.42330241 1.724676 0.28126919 4282121834
0.42931888 1.7231882 0.28126919 4282121834
0.43745083 1.7313308 0.28283355 4282121834
0.44349208 1.7297932 0.28283355 4282121834
0.44425619 1.7091945 0.27970487 4282121834
0.45021933 1.7076336 0.27970487 4282121834
0.46128044 1.7251347 0.28283355 4282121834
0.4688499 1.7292339 0.28377217 4282121834
0.47645441 1.7333007 0.28471076 4282121834
0.48250228 1.7316269 0.28471076 4282121834
0.48746893 1.7261304 0.28408504 4282121834
0.49349177 1.7244182 0.28408504 4282121834
0.50140709 1.7303615 0.28533649 4282121834
0.50714207 1.7286893 0.28533649 4282121834
0.50923401 1.7136538 0.28314641 4282121834
0.51692104 1.7175403 0.28408504 4282121834
0.52321225 1.7156343 0.28408504 4282121834
0.53036386 1.7175722 0.28471076 4282121834
0.53753453 1.7194813 0.28533649 4282121834
0.54114991 1.7100612 0.28408504 4282121834
0.54651213 1.7062809 0.28377217 4282121834
0.55551082 1.7137583 0.28533649 4282121834
0.55996054 1.7081523 0.28471076 4282121834
0.56624317 1.7081612 0.28502363 4282121834
0.5703184 1.7005556 0.28408504 4282121834
0.57625067 1.6985545 0.28408504 4282121834
0.5837549 1.7001678 0.28471076 4282121834
0.59098256 1.7018517 0.28533649 4282121834
0.59501803 1.6962588 0.28471076 4282121834
0.59697372 1.6830009 0.28283355 4282121834
0.60151076 1.6771882 0.28220782 4282121834
0.61005539 1.6825063 0.28345928 4282121834
0.61728483 1.6840758 0.28408504 4282121834
0.62864888 1.69673 0.28658798 4282121834
0.63456815 1.6945251 0.28658798 4282121834
0.63698286 1.6830623 0.28502363 4282121834
0.64608777 1.6901665 0.28658798 4282121834
0.64984792 1.6823728 0.28564936 4282121834
0.65930802 1.6892952 0.28721371 4282121834
0.66230184 1.6796329 0.28596222 4282121834
0.66816133 1.6773105 0.28596222 4282121834
0.67548668 1.6786333 0.28658798 4282121834
0.68402314 1.6837045 0.28783944 4282121834
0.69110239 1.6850822 0.2884652 4282121834
0.69395691 1.6753592 0.28721371 4282121834
0.6997996 1.6729273 0.28721371 4282121834
0.70794135 1.6759331 0.28815234 4282121834
0.71688771 1.6807196 0.2894038 4282121834
0.72167659 1.6765183 0.28909093 4282121834
0.72437376 1.6667427 0.28783944 4282121834
0.72989732 1.6643312 0.28783944 4282121834
0.7373023 1.6653857 0.2884652 4282121834
0.74501348 1.666279 0.28909093 4282121834
0.75407612 1.6708701 0.29034239 4282121834
0.75633746 1.6611696 0.28909093 4282121834
0.76213187 1.6585191 0.28909093 4282121834
0.76957911 1.6594326 0.28971666 4282121834
0.77871591 1.663893 0.29096815 4282121834
0.78451967 1.6611644 0.29096815 4282121834
0.7886135 1.6548493 0.29034239 4282121834
0.79267281 1.6485262 0.28971666 4282121834
0.80014729 1.6493036 0.29034239 4282121834
0.80937296 1.6535976 0.29159388 4282121834
0.8151406 1.6507621 0.29159388 4282121834
0.81884897 1.6445135 0.29096815 4282121834
0.82458407 1.6416453 0.29096815 4282121834
0.83209544 1.6422809 0.29159388 4282121834
0.84141928 1.6464021 0.29284537 4282121834
0.8486827 1.6471152 0.2934711 4282121834
0.85231936 1.6407858 0.29284537 4282121834
0.85437518 1.6308012 0.29159388 4282121834
0.86375427 1.6347951 0.29284537 4282121834
0.8703832 1.6335139 0.29315823 4282121834
0.88075531 1.6391659 0.29472256 4282121834
0.88458925 1.6326082 0.29409683 4282121834
0.88554764 1.6208426 0.2925325 4282121834
0.89568162 1.6265491 0.29409683 4282121834
0.90518987 1.6303207 0.29534832 4282121834
0.91280466 1.6305985 0.29597405 4282121834
0.91752052 1.6256819 0.29566118 4282121834
0.91802371 1.6140447 0.29409683 4282121834
0.92561632 1.6142582 0.29472256 4282121834
0.93717754 1.6212784 0.29659978 4282121834
