# .PCD v0.7 - Point Cloud Data file format
VERSION 0.7
FIELDS x y z intensity
SIZE 4 4 4 4
TYPE F F F F
COUNT 1 1 1 1
WIDTH 168
HEIGHT 1
VIEWPOINT 0 0 0 1 0 0 0
POINTS 168
DATA ascii
3.044565 -0.28250837 -0.29383761 100
3.0494637 -0.27655572 -0.29004365 100
3.0543628 -0.27060303 -0.28624967 100
3.0592616 -0.26465034 -0.28245571 100
3.0641603 -0.25869769 -0.27866176 100
3.0690591 -0.252745 -0.27486777 100
3.0739579 -0.24679232 -0.27107382 100
3.0788567 -0.24083965 -0.26727986 100
3.0837555 -0.23488697 -0.26348591 100
3.0886545 -0.22893429 -0.25969192 100
3.0935533 -0.22298162 -0.25589797 100
3.0984521 -0.21702895 -0.25210401 100
3.1033509 -0.21107627 -0.24831004 100
3.1082497 -0.20512359 -0.24451609 100
3.1131485 -0.1991709 -0.24072212 100
3.1180475 -0.19321823 -0.23692815 100
3.1229463 -0.18726555 -0.2331342 100
3.127845 -0.18131287 -0.22934023 100
3.1327438 -0.17536019 -0.22554626 100
3.1376426 -0.1694075 -0.22175229 100
3.1425414 -0.16345483 -0.21795833 100
3.1474402 -0.15750214 -0.21416436 100
3.1523392 -0.15154947 -0.21037039 100
3.157238 -0.14559679 -0.20657644 100
3.1621368 -0.13964412 -0.20278247 100
3.1670356 -0.13369143 -0.1989885 100
3.1719344 -0.12773876 -0.19519454 100
3.1768332 -0.12178609 -0.19140059 100
3.1817322 -0.11583342 -0.18760662 100
3.186631 -0.10988075 -0.18381266 100
3.1915298 -0.10392807 -0.18001871 100
3.1964285 -0.097975403 -0.17622474 100
3.2013273 -0.092022732 -0.17243078 100
3.2062261 -0.086070061 -0.16863683 100
3.2111249 -0.08011739 -0.16484286 100
3.2160237 -0.074164718 -0.1610489 100
3.2209227 -0.068212047 -0.15725495 100
3.2258215 -0.062259376 -0.15346098 100
3.2307203 -0.056306705 -0.14966702 100
3.2356191 -0.050354034 -0.14587307 100
3.2405179 -0.044401366 -0.14207911 100
3.2454166 -0.038448695 -0.13828515 100
3.2503154 -0.032496024 -0.13449119 100
3.2552145 -0.026543351 -0.13069724 100
3.2601132 -0.02059068 -0.12690327 100
3.265012 -0.014638009 -0.12310931 100
3.2699108 -0.0086853383 -0.11931535 100
3.2748096 -0.0027326676 -0.11552139 100
3.2797084 0.0032200033 -0.11172743 100
3.2846072 0.0091726743 -0.10793347 100
3.289506 0.015125345 -0.10413951 100
3.294405 0.021078017 -0.10034555 100
3.2993038 0.027030688 -0.096551597 100
3.3042026 0.032983359 -0.092757635 100
3.3091013 0.03893603 -0.088963673 100
3.3140001 0.044888701 -0.085169718 100
3.3188989 0.050841372 -0.081375755 100
3.3073809 0.048689622 -0.065165319 100
3.3026087 0.047978234 -0.058066573 100
3.2978363 0.047266848 -0.050967824 100
3.2930641 0.046555463 -0.043869074 100
3.2882919 0.045844074 -0.036770325 100
3.2835195 0.045132689 -0.029671576 100
3.2787473 0.0444213 -0.022572825 100
3.2739749 0.043709915 -0.015474078 100
3.2692027 0.042998526 -0.0083753308 100
3.2644305 0.042287141 -0.0012765835 100
3.2596581 0.041575756 0.005822164 100
3.2548859 0.040864367 0.012920911 100
3.2501135 0.040152982 0.020019658 100
3.2453413 0.039441593 0.027118411 100
3.2405691 0.038730208 0.034217164 100
3.2357967 0.038018819 0.041315917 100
3.2310245 0.037307434 0.04841467 100
3.2262521 0.036596045 0.055513423 100
3.2214799 0.03588466 0.062612176 100
3.2167075 0.035173271 0.069710925 100
3.2119353 0.034461886 0.076809682 100
3.2071631 0.033750497 0.083908431 100
3.2023907 0.033039108 0.091007188 100
3.1976185 0.032327723 0.098105937 100
3.1928461 0.031616334 0.10520469 100
3.1880739 0.030904949 0.11230344 100
3.1833017 0.030193562 0.11940219 100
3.1785293 0.029482177 0.12650092 100
3.1737571 0.02877079 0.13359967 100
3.1689847 0.028059404 0.14069842 100
3.1642125 0.027348017 0.14779715 100
3.1594403 0.026636632 0.1548959 100
3.1546679 0.025925245 0.16199464 100
3.1498957 0.02521386 0.16909339 100
3.1451235 0.024502473 0.17619212 100
3.1403511 0.023791088 0.18329087 100
3.1355789 0.023079701 0.1903896 100
3.1308064 0.022368314 0.19748835 100
3.1260343 0.021656929 0.20458709 100
3.1212621 0.020945542 0.21168584 100
3.1164896 0.020234156 0.21878457 100
3.1117175 0.019522769 0.22588332 100
3.106945 0.018811384 0.23298205 100
3.1021729 0.018099997 0.2400808 100
3.0974007 0.017388612 0.24717954 100
3.0926282 0.016677225 0.25427827 100
3.0878561 0.01596584 0.26137704 100
3.0830836 0.015254454 0.26847577 100
3.0783114 0.014543068 0.27557451 100
3.0735393 0.013831682 0.28267324 100
3.0687668 0.013120295 0.289772 100
3.0639946 0.012408909 0.29687074 100
3.0592225 0.011697523 0.30396947 100
3.05445 0.010986137 0.31106821 100
3.0496778 0.010274751 0.31816697 100
3.0449054 0.009563365 0.32526571 100
3.0401332 0.0088519789 0.33236444 100
3.2868237 0.087381266 -0.098971352 100
3.2816103 0.093478374 -0.10181612 100
3.276397 0.099575482 -0.10466088 100
3.2711835 0.10567259 -0.10750563 100
3.2659702 0.11176969 -0.1103504 100
3.2607567 0.1178668 -0.11319516 100
3.2555435 0.12396391 -0.11603992 100
3.25033 0.13006102 -0.11888468 100
3.2451167 0.13615812 -0.12172944 100
3.2399032 0.14225523 -0.1245742 100
3.23469 0.14835234 -0.12741897 100
3.2294765 0.15444943 -0.13026373 100
3.2242632 0.16054654 -0.13310848 100
3.2190497 0.16664365 -0.13595325 100
3.2138364 0.17274077 -0.13879801 100
3.2086229 0.17883788 -0.14164278 100
3.2034097 0.18493499 -0.14448753 100
3.1981962 0.1910321 -0.1473323 100
3.1929827 0.1971292 -0.15017706 100
3.1877694 0.20322631 -0.15302183 100
3.1825559 0.20932342 -0.15586658 100
3.1773427 0.21542054 -0.15871134 100
3.1721292 0.22151765 -0.16155611 100
3.1669159 0.22761476 -0.16440088 100
3.1617024 0.23371187 -0.16724564 100
3.1564891 0.23980898 -0.17009039 100
3.1512756 0.24590608 -0.17293516 100
3.1460624 0.25200319 -0.17577991 100
3.1408489 0.25810027 -0.17862467 100
3.1356356 0.26419738 -0.18146943 100
3.1304221 0.27029449 -0.18431419 100
3.1252089 0.2763916 -0.18715894 100
3.1199954 0.2824887 -0.19000371 100
3.1147821 0.28858578 -0.19284846 100
3.1095688 0.29468289 -0.19569322 100
3.1043553 0.30078 -0.19853798 100
3.0991421 0.30687711 -0.20138274 100
3.0939286 0.31297418 -0.20422749 100
3.0887153 0.31907129 -0.20707226 100
3.0835018 0.3251684 -0.20991701 100
3.0782886 0.33126551 -0.21276177 100
3.0730751 0.33736259 -0.21560653 100
3.0678618 0.3434597 -0.21845129 100
3.0626483 0.3495568 -0.22129604 100
3.057435 0.35565391 -0.22414081 100
3.0522215 0.36175102 -0.22698556 100
3.0470083 0.3678481 -0.22983032 100
3.0417948 0.37394521 -0.23267508 100
3.0365815 0.38004231 -0.23551984 100
3.031368 0.38613942 -0.23836459 100
3.0261548 0.3922365 -0.24120936 100
3.0209413 0.39833361 -0.24405411 100
3.015728 0.40443072 -0.24689887 100
3.0105145 0.41052783 -0.24974363 100
