# .PCD v0.7 - Point Cloud Data file format
VERSION 0.7
FIELDS x y z rgb
SIZE 4 4 4 4
TYPE F F F U
COUNT 1 1 1 1
WIDTH 417
HEIGHT 1
VIEWPOINT 0 0 0 1 0 0 0
POINTS 417
DATA ascii
3.298995 0.057584841 -0.057592943 4288145246
3.2191038 0.051132664 0.056196753 4288145246
3.3231702 0.046404596 -0.0580118 4288145246
3.2192626 0.039896261 0.056196753 4288145246
3.3033159 0.034593996 -0.057662752 4288145246
3.2213817 0.028675634 0.056231655 4288145246
3.1555541 0.026988143 0.16538164 4288145246
3.0721569 0.025738684 0.26878831 4288145246
3.2874193 0.022950498 -0.057383511 4288145246
3.2014656 0.017321687 0.055882607 4288145246
3.1456428 0.015921654 0.16485828 4288145246
3.0821898 0.015062563 0.26965985 4288145246
3.0034139 0.013629239 0.36877668 4288145246
3.2754812 0.011433933 -0.057174087 4288145246
3.1875088 0.0061201788 0.055638272 4288145246
3.1496735 0.0049466509 0.16506761 4288145246
3.0722618 0.0042903582 0.26878831 4288145246
2.9935176 0.003134093 0.36755794 4288145246
3.2635031 0 -0.056964654 4288145246
3.1795118 -0.0049943691 0.055498652 4288145246
3.1197128 -0.0059894258 0.16349754 4288145246
3.0662808 -0.0064220121 0.26826537 4288145246
2.9895403 -0.0073048398 0.3670705 4288145246
3.2514851 -0.01134987 -0.056755226 4288145246
3.1714792 -0.015498894 0.055359036 4288145246
3.0997036 -0.016230157 0.16245082 4288145246
3.0542884 -0.016525453 0.26721951 4288145246
2.9795742 -0.017161304 0.36585179 4288145246
3.2114365 -0.021859892 -0.056057129 4288145246
3.1594081 -0.026468813 0.055149604 4288145246
3.0876451 -0.02694547 0.1618228 4288145246
3.0342891 -0.027009463 0.26547641 4288145246
3.2073414 -0.033028584 -0.055987321 4288145246
3.1353016 -0.03721226 0.054730747 4288145246
3.0915263 -0.037772 0.16203214 4288145246
3.0182385 -0.037403435 0.2640819 4288145246
3.1912105 -0.04400352 -0.055708081 4288145246
3.1271551 -0.048033431 0.05459113 4288145246
3.0714054 -0.048249491 0.16098543 4288145246
3.0180895 -0.047938827 0.2640819 4288145246
3.1870391 -0.055073556 -0.055638272 4288145246
3.1149721 -0.058722798 0.054381698 4288145246
3.0552535 -0.058130428 0.16014804 4288145246
3.0099356 -0.058319237 0.26338464 4288145246
3.1708446 -0.065312408 -0.055359036 4288145246
3.1027651 -0.068786167 0.05417227 4288145246
3.0390697 -0.067904763 0.15931067 4288145246
3.0017583 -0.068119422 0.26268741 4288145246
3.2007043 -0.075987719 -0.16778909 4288145246
3.1546175 -0.075444475 -0.055079795 4288145246
3.1025198 -0.079074919 0.05417227 4288145246
3.034821 -0.078409515 0.15910132 4288145246
2.9835901 -0.077606969 0.26111859 4288145246
3.2024314 -0.086655252 -0.16789377 4288145246
3.1383431 -0.08601737 -0.054800555 4288145246
3.0782387 -0.089209132 0.053753413 4288145246
3.0265431 -0.088768318 0.15868263 4288145246
2.9613945 -0.087374821 0.25920117 4288145246
3.1881351 -0.097406343 -0.16716106 4288145246
3.1300287 -0.096724652 -0.054660939 4288145246
3.0539248 -0.099174783 0.053334557 4288145246
3.0142379 -0.098939262 0.15805461 4288145246
2.9570887 -0.09758006 0.25885254 4288145246
3.1738029 -0.10805868 -0.16642836 4288145246
3.1216784 -0.10737494 -0.054521319 4288145246
3.0575566 -0.10997812 0.053404365 4288145246
2.9899228 -0.10859042 0.15679854 4288145246
2.9487472 -0.10812564 0.25815532 4288145246
3.1554229 -0.11901303 -0.16548631 4288145246
3.1092949 -0.11781666 -0.05431189 4288145246
3.0411482 -0.12055025 0.053125124 4288145246
2.9815428 -0.11870871 0.15637985 4288145246
2.9403887 -0.11809821 0.25745806 4288145246
3.147006 -0.1296978 -0.16506761 4288145246
3.0888848 -0.12784249 -0.053962842 4288145246
3.036736 -0.13046274 0.053055316 4288145246
2.9771194 -0.12894267 0.15617052 4288145246
2.9120917 -0.12714466 0.2550177 4288145246
3.1465588 -0.14013293 -0.16506761 4288145246
3.0764337 -0.13808595 -0.053753413 4288145246
3.0162868 -0.1401341 0.052706268 4288145246
2.9766514 -0.13933396 0.15617052 4288145246
2.9275756 -0.13754886 0.25641218 4288145246
3.1241057 -0.15006156 -0.16391623 4288145246
3.0599539 -0.14805074 -0.053474173 4288145246
3.0037961 -0.15006338 0.052496839 4288145246
2.9601891 -0.14892076 0.15533313 4288145246
3.1036167 -0.15993793 -0.16286951 4288145246
3.0554245 -0.15852384 -0.053404365 4288145246
2.9952667 -0.1601207 0.052357223 4288145246
2.943696 -0.15839434 0.15449576 4288145246
3.0811031 -0.16956335 -0.16171812 4288145246
3.0508595 -0.16896714 -0.053334557 4288145246
2.9906962 -0.17034769 0.052287407 4288145246
2.9231853 -0.16752605 0.15344904 4288145246
3.0924556 -0.18101765 -0.16234615 4288145246
3.0302887 -0.17844011 -0.052985508 4288145246
2.9781072 -0.18006204 0.052077983 4288145246
2.9226139 -0.17721878 0.15344904 4288145246
3.0858245 -0.19144021 -0.16203214 4288145246
3.0137136 -0.18749458 -0.052706268 4288145246
2.9615285 -0.18891837 0.051798742 4288145246
2.9219773 -0.18741949 0.15344904 4288145246
3.0975673 -0.2019394 -0.2715773 4288145246
3.0752077 -0.20102073 -0.16150878 4288145246
3.005059 -0.1974887 -0.052566648 4288145246
2.94888 -0.1984493 0.051589314 4288145246
2.9053638 -0.19653954 0.15261166 4288145246
3.0948927 -0.21207398 -0.27140298 4288145246
3.0525692 -0.21024439 -0.16035739 4288145246
3.0023565 -0.20783901 -0.052531745 4288145246
2.9401906 -0.20817663 0.051449694 4288145246
2.8807533 -0.2049789 0.15135561 4288145246
3.1000955 -0.22330533 -0.2719259 4288145246
3.0318964 -0.21945667 -0.15931067 4288145246
2.9916408 -0.21759263 -0.052357223 4288145246
2.9434342 -0.21873495 0.051519506 4288145246
2.8859956 -0.21547949 0.15166962 4288145246
3.0933368 -0.23367506 -0.27140298 4288145246
3.0251372 -0.22958519 -0.15899664 4288145246
2.9729176 -0.22666588 -0.052043077 4288145246
2.9267037 -0.22776689 0.051240265 4288145246
3.0746267 -0.24305828 -0.26983419 4288145246
3.0183442 -0.2396692 -0.15868263 4288145246
2.9621415 -0.23624702 -0.05186855 4288145246
2.9019735 -0.23603626 0.050821409 4288145246
3.0578747 -0.25247768 -0.26843968 4288145246
3.0115182 -0.24970864 -0.15836863 4288145246
2.9573131 -0.24625349 -0.051798742 4288145246
2.8891764 -0.24515018 0.050611977 4288145246
3.0609446 -0.26349187 -0.26878831 4288145246
2.98874 -0.25832739 -0.15721723 4288145246
2.9484665 -0.25588337 -0.051659122 4288145246
2.8843193 -0.25488174 0.050542168 4288145246
3.0520682 -0.27346373 -0.26809105 4288145246
2.9719062 -0.26732698 -0.15637985 4288145246
2.9396353 -0.26494142 -0.051519506 4288145246
2.8794756 -0.26407984 0.05047236 4288145246
3.0411763 -0.28319213 -0.26721951 4288145246
2.9710033 -0.27718073 -0.15637985 4288145246
2.9187829 -0.27333656 -0.051170457 4288145246
3.0223718 -0.29155368 -0.26565069 4288145246
2.9660418 -0.28716484 -0.15617052 4288145246
2.9018884 -0.2819761 -0.050891217 4288145246
3.0054755 -0.30051616 -0.26425621 4288145246
2.9530973 -0.29632005 -0.15554248 4288145246
2.8969073 -0.29170322 -0.050821409 4288145246
3.0004449 -0.3105951 -0.26390758 4288145246
2.9341664 -0.3047694 -0.15460044 4288145246
2.8998492 -0.30222809 -0.050891217 4288145246
2.9933989 -0.32043046 -0.26338464 4288145246
2.9171979 -0.31330347 -0.15376306 4288145246
2.9843411 -0.33000153 -0.26268741 4288145246
2.9160864 -0.32348451 -0.15376306 4288145246
2.961396 -0.33793202 -0.26076996 4288145246
2.9189081 -0.33411583 -0.1539724 4288145246
2.9977603 0.44374007 -0.26512775 4279524492
2.9973192 0.43298906 -0.26495346 4279524492
2.9988122 0.42252442 -0.26495346 4279524492
3.0140858 0.41395089 -0.26617363 4279524492
3.0116329 0.40237385 -0.265825 4279524492
3.0070922 0.39108717 -0.26530206 4279524492
2.9985559 0.37933844 -0.26443052 4279524492
3.0077715 0.36984101 -0.26512775 4279524492
3.0070033 0.35962889 -0.26495346 4279524492
3.0201149 0.35050762 -0.26599932 4279524492
3.0035009 0.33795893 -0.26443052 4279524492
3.0046625 0.32747191 -0.26443052 4279524492
3.0137126 0.31781811 -0.26512775 4279524492
3.0148036 0.30729553 -0.26512775 4279524492
3.0198236 0.29716092 -0.26547641 4279524492
3.0049746 0.28511307 -0.2640819 4279524492
3.0059037 0.2751458 -0.2640819 4279524492
3.0147846 0.26534951 -0.26477915 4279524492
2.87801 0.2436967 -0.3546398 4279524492
3.0196629 0.25516188 -0.26512775 4279524492
2.8709292 0.2330074 -0.35366488 4279524492
3.0185494 0.24445814 -0.26495346 4279524492
3.1355062 0.25282833 -0.16485828 4279524492
2.8835995 0.22390582 -0.35512727 4279524492
3.0173979 0.23376667 -0.26477915 4279524492
3.1463268 0.24264887 -0.16538164 4279524492
2.8843634 0.21383943 -0.35512727 4279524492
3.0142219 0.22293784 -0.26443052 4279524492
3.1610975 0.23269172 -0.16611435 4279524492
2.8791521 0.20335087 -0.3543961 4279524492
3.0229313 0.21297416 -0.26512775 4279524492
3.1539209 0.22109799 -0.16569565 4279524492
2.8719218 0.19276696 -0.35342112 4279524492
3.0276322 0.20268768 -0.26547641 4279524492
3.158659 0.21035196 -0.165905 4279524492
2.8686149 0.18248947 -0.35293365 4279524492
3.0283213 0.19211869 -0.26547641 4279524492
3.1633611 0.19957709 -0.16611435 4279524492
2.8731976 0.17271248 -0.35342112 4279524492
3.0170405 0.18083212 -0.26443052 4279524492
3.1760004 0.18924564 -0.16674237 4279524492
2.8856745 0.16335587 -0.35488355 4279524492
3.0176535 0.17029877 -0.26443052 4279524492
3.1726534 0.17793517 -0.16653302 4279524492
2.8842447 0.15317594 -0.3546398 4279524492
3.0222087 0.15997398 -0.26477915 4279524492
3.1732554 0.16685861 -0.16653302 4279524492
2.8807719 0.14341378 -0.35415235 4279524492
3.0287185 0.14971928 -0.26530206 4279524492
3.167834 0.15548629 -0.16621901 4279524492
2.8792484 0.13376708 -0.3539086 4279524492
3.0311887 0.13976724 -0.26547641 4279524492
3.1723223 0.14516374 -0.16642836 4279524492
2.8796976 0.12371778 -0.3539086 4279524492
3.0256865 0.12893029 -0.26495346 4279524492
3.1727862 0.13464528 -0.16642836 4279524492
2.8860626 0.1138991 -0.3546398 4279524492
3.0201454 0.11813491 -0.26443052 4279524492
3.1772504 0.12316796 -0.1666377 4279524492
2.8963799 0.10367607 -0.3558585 4279524492
3.0285037 0.1078748 -0.26512775 4279524492
3.1656847 0.11165632 -0.16600966 4279524492
2.8788679 0.092987657 -0.35366488 4279524492
3.0308533 0.097365849 -0.26530206 4279524492
3.166055 0.10060448 -0.16600966 4279524492
2.8890963 0.083222993 -0.35488355 4279524492
3.0371492 0.086958759 -0.265825 4279524492
3.180362 0.08994668 -0.16674237 4279524492
2.8814311 0.072937332 -0.3539086 4279524492
3.0354426 0.076305717 -0.26565069 4279524492
3.1806567 0.078845263 -0.16674237 4279524492
2.8955605 0.063181184 -0.35561478 4279524492
3.0317066 0.065623991 -0.26530206 4279524492
3.1829095 0.0677839 -0.16684705 4279524492
2.8957634 0.053074013 -0.35561478 4279524492
3.0398855 0.055184804 -0.26599932 4279524492
3.169148 0.056424845 -0.16611435 4279524492
2.8899765 0.042876475 -0.35488355 4279524492
3.0380673 0.044543266 -0.265825 4279524492
3.179311 0.045504186 -0.1666377 4279524492
2.8920932 0.032811441 -0.35512727 4279524492
3.0441813 0.034005567 -0.26634794 4279524492
3.1774533 0.034385093 -0.16653302 4279524492
2.9001305 0.022778926 -0.35610226 4279524492
3.0402968 0.023347773 -0.26599932 4279524492
3.1875401 0.023367381 -0.16705638 4279524492
2.9061477 0.012680655 -0.35683349 4279524492
3.0403597 0.012737104 -0.26599932 4279524492
3.1915965 0.012255137 -0.16726573 4279524492
2.9061744 0.0025368407 -0.35683349 4279524492
3.0463629 0.0021275545 -0.26652226 4279524492
3.1836309 0.0011121914 -0.16684705 4279524492
2.9021952 -0.0075979452 -0.35634598 4279524492
3.0483441 -0.0085126041 -0.26669657 4279524492
3.1836154 -0.010001656 -0.16684705 4279524492
2.8922286 -0.017163031 -0.35512727 4279524492
3.0463068 -0.01860906 -0.26652226 4279524492
3.1915536 -0.020610441 -0.16726573 4279524492
2.9060464 -0.027389651 -0.35683349 4279524492
3.0442312 -0.02922342 -0.26634794 4279524492
3.199451 -0.031830393 -0.16768442 4279524492
2.8999782 -0.037456561 -0.35610226 4279524492
3.050087 -0.039927829 -0.26687086 4279524492
3.2073085 -0.043105729 -0.16810311 4279524492
2.919678 -0.047904812 -0.35853964 4279524492
3.0519211 -0.050607409 -0.2670452 4279524492
3.2011476 -0.054199625 -0.16778909 4279524492
2.9036252 -0.057273362 -0.35658973 4279524492
3.0577018 -0.061380256 -0.26756814 4279524492
3.1889579 -0.065128691 -0.16716106 4279524492
2.9133425 -0.067130461 -0.35780841 4279524492
3.067441 -0.071752578 -0.26843968 4279524492
2.9150746 -0.077352174 -0.35805216 4279524492
3.0552356 -0.081604995 -0.2673938 4279524492
2.9207394 -0.087705962 -0.35878339 4279524492
3.0589151 -0.092389569 -0.26774243 4279524492
2.9204156 -0.097900718 -0.35878339 4279524492
3.0625386 -0.10373532 -0.26809105 4279524492
2.9101374 -0.1077271 -0.35756469 4279524492
3.070122 -0.11472254 -0.26878831 4279524492
2.9117064 -0.11847326 -0.35780841 4279524492
3.0836377 -0.126008 -0.27000847 4279524492
2.9192302 -0.12847732 -0.35878339 4279524492
3.0752175 -0.13641796 -0.26931125 4279524492
2.9286783 -0.13913757 -0.36000207 4279524492
3.0747483 -0.146615 -0.26931125 4279524492
2.9380872 -0.14986531 -0.36122078 4279524492
3.0821767 -0.15775433 -0.27000847 4279524492
2.9256532 -0.15947197 -0.35975835 4279524492
3.0955334 -0.1692737 -0.27122867 4279524492
2.9191334 -0.16933855 -0.35902712 4279524492
3.0829892 -0.1793837 -0.27018279 4279524492
2.9284313 -0.18013659 -0.36024579 4279524492
3.0803559 -0.19002157 -0.27000847 4279524492
2.9337609 -0.19023198 -0.36097702 4279524492
2.942981 -0.20114835 -0.36219573 4279524492
2.9363213 -0.21099325 -0.3614645 4279524492
2.927649 -0.22064491 -0.36048955 4279524492
2.9387343 -0.2317995 -0.36195198 4279524492
2.9477997 -0.24287121 -0.36317068 4279524492
2.9410005 -0.25264972 -0.36243945 4279524492
2.9480093 -0.26362142 -0.36341441 4279524492
2.9494445 0.42502224 -0.15617052 4290224828
2.9444246 0.40333661 -0.15575182 4290224828
2.9517541 0.39384788 -0.15606584 4290224828
2.969023 0.3850823 -0.15690321 4290224828
2.8854542 0.37373137 -0.050786503 4290224828
2.9862018 0.37671515 -0.15774059 4290224828
2.9085655 0.36640555 -0.051170457 4290224828
2.9894166 0.36705446 -0.15784526 4290224828
2.9217362 0.3577092 -0.051379886 4290224828
2.9986124 0.35756379 -0.15826395 4290224828
2.9348812 0.34892392 -0.051589314 4290224828
2.8818014 0.33802378 0.050646886 4290224828
3.0157146 0.34893018 -0.15910132 4290224828
2.9400539 0.33913743 -0.051659122 4290224828
2.8849506 0.32818899 0.050681788 4290224828
3.0288229 0.33973622 -0.15972935 4290224828
2.9451947 0.32931635 -0.051728934 4290224828
2.8801157 0.31745997 0.050577074 4290224828
3.0458751 0.33088785 -0.16056673 4290224828
2.9582548 0.32032451 -0.051938362 4290224828
2.8811526 0.30790663 0.050577074 4290224828
3.0529146 0.32141352 -0.16088074 4290224828
2.9791884 0.3126002 -0.052287407 4290224828
2.9001117 0.29969686 0.050891217 4290224828
3.0540721 0.31022257 -0.16088074 4290224828
2.9882195 0.30300516 -0.052427031 4290224828
2.9250689 0.2914452 0.051310074 4290224828
3.0750136 0.3015081 -0.16192746 4290224828
2.9932394 0.2929627 -0.052496839 4290224828
2.9339814 0.28251097 0.051449694 4290224828
2.8768253 0.27599403 0.15146028 4290224828
3.0879269 0.29243836 -0.1625555 4290224828
3.0022073 0.28326452 -0.052636456 4290224828
2.9309673 0.27189893 0.051379886 4290224828
3.1068294 0.28329206 -0.16349754 4290224828
3.0151267 0.2738677 -0.052845888 4290224828
2.9478326 0.26308757 0.051659122 4290224828
2.8826609 0.256257 0.15166962 4290224828
3.1038203 0.27209583 -0.16328819 4290224828
3.0320013 0.2647334 -0.053125124 4290224828
2.9567025 0.25347859 0.051798742 4290224828
2.8875179 0.2465321 0.15187897 4290224828
3.1206732 0.26259878 -0.16412558 4290224828
3.0448632 0.25514922 -0.053334557 4290224828
2.9814851 0.24512306 0.052217599 4290224828
2.8983138 0.23726806 0.15240233 4290224828
3.0497217 0.24483836 -0.053404365 4290224828
2.9863095 0.23502721 0.052287407 4290224828
2.9110711 0.22808488 0.15303035 4290224828
3.0704961 0.23572412 -0.053753413 4290224828
2.9871116 0.22460368 0.052287407 4290224828
2.9317665 0.21941178 0.15407708 4290224828
3.0792775 0.22558825 -0.05389303 4290224828
2.999845 0.21503241 0.052496839 4290224828
2.9404833 0.20974568 0.15449576 4290224828
3.0920153 0.21567371 -0.054102462 4290224828
3.012548 0.20537494 0.052706268 4290224828
2.9451828 0.19974971 0.15470509 4290224828
3.1127026 0.20620021 -0.054451507 4290224828
3.0371928 0.19640712 0.053125124 4290224828
2.953835 0.18998128 0.1551238 4290224828
3.1173952 0.19558321 -0.054521319 4290224828
3.0458436 0.18629165 0.053264745 4290224828
2.9704287 0.1806384 0.15596117 4290224828
3.1220512 0.18493743 -0.05459113 4290224828
3.0464754 0.17565916 0.053264745 4290224828
2.979017 0.17072628 0.15637985 4290224828
2.8942068 0.16535908 0.25362319 4290224828
3.146637 0.17537281 -0.055009987 4290224828
3.0590506 0.16567194 0.053474173 4290224828
2.9955497 0.16118568 0.15721723 4290224828
2.9186409 0.1565351 0.25571495 4290224828
3.1632054 0.16522455 -0.055289224 4290224828
3.071593 0.15560053 0.053683605 4290224828
3.0000572 0.15145175 0.15742657 4290224828
2.9390683 0.14734441 0.25745806 4290224828
3.17572 0.1553193 -0.055498652 4290224828
3.1000564 0.14673817 0.05417227 4290224828
3.0045331 0.14169115 0.15763591 4290224828
2.9435213 0.1377842 0.25780669 4290224828
3.1762176 0.14478801 -0.055498652 4290224828
3.1125128 0.13698539 0.054381698 4290224828
3.0249629 0.1320729 0.15868263 4290224828
2.9479427 0.12819608 0.25815532 4290224828
3.192687 0.13437192 -0.055777889 4290224828
3.1049795 0.12579523 0.054242078 4290224828
3.0453618 0.12231518 0.15972935 4290224828
2.9603376 0.11786388 0.25920117 4290224828
3.2051258 0.1236899 -0.055987321 4290224828
3.1214066 0.11500376 0.054521319 4290224828
3.0537736 0.11144313 0.16014804 4290224828
2.97666 0.10811021 0.26059568 4290224828
3.2295394 0.11277834 -0.056406178 4290224828
3.1417749 0.10477298 0.054870363 4290224828
3.0581362 0.10091517 0.16035739 4290224828
2.9889669 0.09811046 0.26164153 4290224828
3.2419057 0.10188201 -0.056615606 4290224828
3.1661069 0.094522238 0.055289224 4290224828
3.0704484 0.090592273 0.16098543 4290224828
2.9972575 0.087910689 0.26233879 4290224828
3.2542348 0.090899169 -0.056825034 4290224828
3.1744137 0.083679825 0.055428844 4290224828
3.082725 0.080186099 0.16161345 4290224828
3.0094962 0.077755734 0.26338464 4290224828
3.2625289 0.079733782 -0.056964654 4290224828
3.1746864 0.072597697 0.055428844 4290224828
3.1069474 0.069965124 0.16286951 4290224828
3.0097494 0.067249358 0.26338464 4290224828
3.2747829 0.0685969 -0.057174087 4290224828
3.1869166 0.061748635 0.055638272 4290224828
3.1311355 0.059574526 0.16412558 4290224828
3.0398464 0.057306904 0.26599932 4290224828
3.1273303 0.048583072 0.16391623 4290224828
3.0499885 0.046847694 0.26687086 4290224828
2.9911973 0.044901788 0.36731425 4290224828
3.1334724 0.037737682 0.16423026 4290224828
3.0700562 0.036439531 0.26861399 4290224828
2.9893508 0.034436624 0.3670705 4290224828
2.9874678 0.023986325 0.36682677 4290224828
