# .PCD v0.7 - Point Cloud Data file format
VERSION 0.7
FIELDS x y z intensity
SIZE 4 4 4 4
TYPE F F F F
COUNT 1 1 1 1
WIDTH 170
HEIGHT 1
VIEWPOINT 0 0 0 1 0 0 0
POINTS 170
DATA ascii
3.04266 -0.28429031 -0.2940996 100
3.0474958 -0.27829728 -0.29032528 100
3.0523314 -0.27230424 -0.28655094 100
3.0571673 -0.26631117 -0.28277662 100
3.0620031 -0.26031813 -0.27900228 100
3.066839 -0.25432509 -0.27522796 100
3.0716746 -0.24833205 -0.27145362 100
3.0765104 -0.242339 -0.2676793 100
3.0813463 -0.23634596 -0.26390496 100
3.0861819 -0.23035292 -0.26013064 100
3.0910177 -0.22435988 -0.25635633 100
3.0958536 -0.21836683 -0.25258198 100
3.1006894 -0.21237379 -0.24880765 100
3.105525 -0.20638075 -0.24503332 100
3.1103609 -0.2003877 -0.24125899 100
3.1151967 -0.19439466 -0.23748466 100
3.1200325 -0.18840161 -0.23371033 100
3.1248682 -0.18240856 -0.229936 100
3.129704 -0.17641552 -0.22616167 100
3.1345398 -0.17042246 -0.22238733 100
3.1393757 -0.16442943 -0.218613 100
3.1442113 -0.15843637 -0.21483867 100
3.1490471 -0.15244333 -0.21106434 100
3.153883 -0.14645028 -0.20729001 100
3.1587188 -0.14045724 -0.20351568 100
3.1635544 -0.13446419 -0.19974135 100
3.1683903 -0.12847115 -0.19596702 100
3.1732261 -0.12247811 -0.19219269 100
3.1780617 -0.11648507 -0.18841837 100
3.1828976 -0.11049204 -0.18464404 100
3.1877334 -0.104499 -0.18086971 100
3.1925693 -0.098505959 -0.17709538 100
3.1974049 -0.092512928 -0.17332107 100
3.2022407 -0.08651989 -0.16954674 100
3.2070765 -0.080526851 -0.16577241 100
3.2119122 -0.074533813 -0.16199809 100
3.216748 -0.068540774 -0.15822376 100
3.2215838 -0.062547736 -0.15444943 100
3.2264197 -0.056554697 -0.1506751 100
3.2312553 -0.050561659 -0.14690079 100
3.2360911 -0.044568621 -0.14312646 100
3.240927 -0.038575586 -0.13935213 100
3.2457626 -0.032582548 -0.1355778 100
3.2505984 -0.026589509 -0.13180348 100
3.2554343 -0.020596471 -0.12802915 100
3.2602701 -0.014603433 -0.12425482 100
3.2651057 -0.0086103957 -0.1204805 100
3.2699416 -0.0026173578 -0.11670618 100
3.2747774 0.00337568 -0.11293185 100
3.279613 0.0093687177 -0.10915753 100
3.2844489 0.015361755 -0.10538319 100
3.2892847 0.021354793 -0.10160887 100
3.2941206 0.027347831 -0.097834542 100
3.2989562 0.033340868 -0.09406022 100
3.303792 0.039333906 -0.09028589 100
3.3086278 0.045326944 -0.086511567 100
3.3134634 0.051319983 -0.082737237 100
3.3036511 0.054117925 -0.058961522 100
3.2988605 0.053318787 -0.051903978 100
3.29407 0.052519649 -0.044846434 100
3.2892795 0.051720515 -0.03778889 100
3.2844889 0.050921377 -0.030731348 100
3.2796984 0.050122239 -0.023673803 100
3.2749078 0.049323101 -0.016616259 100
3.2701173 0.048523966 -0.0095587177 100
3.2653267 0.047724828 -0.0025011755 100
3.2605362 0.04692569 0.0045563662 100
3.2557456 0.046126556 0.011613908 100
3.2509551 0.045327418 0.018671449 100
3.2461646 0.044528279 0.025728991 100
3.241374 0.043729145 0.032786537 100
3.2365835 0.042930007 0.039844085 100
3.2317929 0.042130869 0.046901632 100
3.2270024 0.041331731 0.05395918 100
3.2222118 0.040532593 0.061016727 100
3.2174213 0.039733455 0.068074271 100
3.2126307 0.03893432 0.075131819 100
3.2078402 0.038135182 0.082189366 100
3.2030497 0.037336044 0.089246914 100
3.1982591 0.036536906 0.096304461 100
3.1934686 0.035737768 0.10336201 100
3.188678 0.034938633 0.11041956 100
3.1838875 0.034139495 0.1174771 100
3.1790969 0.033340357 0.12453464 100
3.1743064 0.032541223 0.13159217 100
3.1695158 0.031742085 0.13864972 100
3.1647253 0.030942949 0.14570725 100
3.1599348 0.030143812 0.15276478 100
3.1551442 0.029344676 0.15982231 100
3.1503537 0.02854554 0.16687986 100
3.1455631 0.027746404 0.1739374 100
3.1407726 0.026947267 0.18099493 100
3.135982 0.026148131 0.18805246 100
3.1311915 0.025348995 0.19511001 100
3.1264009 0.024549859 0.20216754 100
3.1216104 0.023750722 0.20922507 100
3.1168199 0.022951586 0.21628261 100
3.1120293 0.02215245 0.22334015 100
3.1072388 0.021353314 0.23039769 100
3.1024482 0.020554177 0.23745522 100
3.0976577 0.019755041 0.24451277 100
3.0928671 0.018955905 0.25157028 100
3.0880766 0.018156769 0.25862783 100
3.083286 0.017357633 0.26568538 100
3.0784955 0.016558496 0.2727429 100
3.073705 0.01575936 0.27980044 100
3.0689144 0.014960224 0.28685799 100
3.0641239 0.014161088 0.29391551 100
3.0593333 0.013361951 0.30097306 100
3.0545428 0.012562815 0.30803058 100
3.0497522 0.011763679 0.31508812 100
3.0449617 0.010964543 0.32214567 100
3.0401711 0.010165406 0.32920319 100
3.2915015 0.08669249 -0.093959324 100
3.2862344 0.092797302 -0.096875623 100
3.2809672 0.098902114 -0.099791929 100
3.2756999 0.10500692 -0.10270824 100
3.2704327 0.11111173 -0.10562453 100
3.2651656 0.11721654 -0.10854084 100
3.2598984 0.12332135 -0.11145714 100
3.2546313 0.12942615 -0.11437345 100
3.2493641 0.13553096 -0.11728974 100
3.244097 0.14163578 -0.12020605 100
3.2388299 0.14774059 -0.12312235 100
3.2335627 0.15384538 -0.12603866 100
3.2282956 0.1599502 -0.12895496 100
3.2230284 0.16605501 -0.13187127 100
3.2177613 0.17215982 -0.13478756 100
3.2124939 0.17826463 -0.13770387 100
3.2072268 0.18436944 -0.14062017 100
3.2019596 0.19047426 -0.14353648 100
3.1966925 0.19657907 -0.14645278 100
3.1914253 0.20268388 -0.14936909 100
3.1861582 0.20878869 -0.1522854 100
3.180891 0.2148935 -0.1552017 100
3.1756239 0.22099832 -0.15811801 100
3.1703568 0.22710313 -0.1610343 100
3.1650896 0.23320796 -0.16395061 100
3.1598222 0.23931277 -0.16686691 100
3.1545551 0.24541757 -0.16978322 100
3.1492879 0.25152236 -0.17269951 100
3.1440208 0.25762716 -0.17561582 100
3.1387537 0.26373199 -0.17853212 100
3.1334865 0.26983678 -0.18144841 100
3.1282194 0.27594158 -0.18436472 100
3.1229522 0.28204638 -0.18728101 100
3.1176851 0.28815117 -0.19019732 100
3.1124179 0.294256 -0.19311363 100
3.1071508 0.3003608 -0.19602992 100
3.1018836 0.3064656 -0.19894622 100
3.0966165 0.31257039 -0.20186251 100
3.0913494 0.31867522 -0.20477882 100
3.0860822 0.32478002 -0.20769513 100
3.0808151 0.33088481 -0.21061142 100
3.0755479 0.33698961 -0.21352772 100
3.0702806 0.34309441 -0.21644402 100
3.0650134 0.34919924 -0.21936032 100
3.0597463 0.35530403 -0.22227663 100
3.0544791 0.36140883 -0.22519292 100
3.049212 0.36751363 -0.22810923 100
3.0439448 0.37361842 -0.23102552 100
3.0386777 0.37972325 -0.23394182 100
3.0334105 0.38582805 -0.23685813 100
3.0281434 0.39193285 -0.23977442 100
3.0228763 0.39803764 -0.24269073 100
3.0176091 0.40414247 -0.24560702 100
3.012342 0.41024727 -0.24852332 100
3.0070748 0.41635206 -0.25143963 100
3.0018077 0.42245686 -0.25435594 100
2.9965405 0.42856166 -0.25727221 100
