# .PCD v0.7 - Point Cloud Data file format
VERSION 0.7
FIELDS x y z intensity
SIZE 4 4 4 4
TYPE F F F F
COUNT 1 1 1 1
WIDTH 141
HEIGHT 1
VIEWPOINT 0 0 0 1 0 0 0
POINTS 141
DATA ascii
3.2898173 0.045559134 -0.039613537 100
3.285121 0.04489499 -0.032563798 100
3.2804244 0.044230849 -0.025514059 100
3.275728 0.043566704 -0.018464319 100
3.2710316 0.042902563 -0.01141458 100
3.266335 0.042238418 -0.0043648402 100
3.2616386 0.041574277 0.0026849005 100
3.256942 0.040910132 0.009734638 100
3.2522457 0.040245991 0.016784376 100
3.2475491 0.039581846 0.023834115 100
3.2428527 0.038917705 0.030883852 100
3.2381561 0.038253564 0.037933592 100
3.2334597 0.03758942 0.044983327 100
3.2287633 0.036925279 0.05203307 100
3.2240667 0.036261134 0.059082814 100
3.2193704 0.035596989 0.06613256 100
3.2146738 0.034932848 0.0731823 100
3.2099774 0.034268703 0.080232047 100
3.2052808 0.033604562 0.087281786 100
3.2005844 0.032940418 0.094331533 100
3.1958878 0.032276276 0.10138127 100
3.1911914 0.031612132 0.10843102 100
3.1864951 0.030947989 0.11548076 100
3.1817985 0.030283846 0.12253051 100
3.1771021 0.029619703 0.12958024 100
3.1724055 0.028955558 0.13662998 100
3.1677091 0.028291417 0.14367972 100
3.1630125 0.027627274 0.15072945 100
3.1583161 0.026963133 0.15777919 100
3.1536198 0.02629899 0.16482893 100
3.1489232 0.025634848 0.17187865 100
3.1442268 0.024970707 0.17892839 100
3.1395302 0.024306564 0.18597811 100
3.1348338 0.023642423 0.19302785 100
3.1301372 0.02297828 0.20007758 100
3.1254408 0.022314137 0.20712732 100
3.1207445 0.021649996 0.21417704 100
3.1160479 0.020985853 0.22122678 100
3.1113515 0.020321712 0.22827651 100
3.1066549 0.019657569 0.23532625 100
3.1019585 0.018993426 0.24237598 100
3.0972619 0.018329285 0.24942571 100
3.0925655 0.017665142 0.25647545 100
3.0878692 0.017001001 0.26352519 100
3.0831726 0.016336858 0.2705749 100
3.0784762 0.015672715 0.27762464 100
3.0737796 0.015008574 0.28467438 100
3.0690832 0.014344431 0.29172412 100
3.0643868 0.013680289 0.29877383 100
3.0596902 0.013016148 0.30582356 100
3.0549939 0.012352006 0.3128733 100
3.0502973 0.011687864 0.31992304 100
3.0456009 0.011023721 0.32697278 100
3.0409043 0.010359579 0.33402249 100
3.0491276 -0.27548224 -0.28520229 100
3.0548511 -0.26854336 -0.28083256 100
3.0605745 -0.26160452 -0.27646285 100
3.0662978 -0.25466564 -0.27209312 100
3.0720212 -0.2477268 -0.26772338 100
3.0777447 -0.24078792 -0.26335365 100
3.0834682 -0.23384906 -0.25898391 100
3.0891917 -0.2269102 -0.2546142 100
3.0949152 -0.21997134 -0.25024447 100
3.1006384 -0.21303248 -0.24587475 100
3.1063619 -0.20609362 -0.24150501 100
3.1120853 -0.19915476 -0.23713529 100
3.1178088 -0.1922159 -0.23276556 100
3.1235323 -0.18527704 -0.22839583 100
3.1292555 -0.17833817 -0.2240261 100
3.134979 -0.17139931 -0.21965636 100
3.1407025 -0.16446045 -0.21528664 100
3.146426 -0.15752158 -0.21091691 100
3.1521494 -0.15058272 -0.20654717 100
3.1578729 -0.14364386 -0.20217745 100
3.1635962 -0.13670498 -0.19780771 100
3.1693196 -0.12976612 -0.19343798 100
3.1750431 -0.12282725 -0.18906826 100
3.1807666 -0.11588839 -0.18469852 100
3.1864901 -0.10894952 -0.18032879 100
3.1922133 -0.10201066 -0.17595907 100
3.1979368 -0.0950718 -0.17158933 100
3.2036602 -0.088132948 -0.16721961 100
3.2093837 -0.081194095 -0.16284989 100
3.2151072 -0.074255235 -0.15848017 100
3.3036466 0.065232925 -0.088191956 100
3.2984114 0.071377605 -0.091143698 100
3.2931764 0.077522285 -0.094095446 100
3.2879412 0.083666958 -0.097047187 100
3.282706 0.089811638 -0.099998929 100
3.2774708 0.095956318 -0.10295068 100
3.2722359 0.102101 -0.10590242 100
3.2670007 0.10824567 -0.10885417 100
3.2617655 0.11439035 -0.11180591 100
3.2565303 0.12053502 -0.11475765 100
3.2512953 0.1266797 -0.1177094 100
3.2460601 0.13282438 -0.12066114 100
3.2408249 0.13896905 -0.12361288 100
3.2355897 0.14511374 -0.12656462 100
3.2303548 0.15125841 -0.12951638 100
3.2251196 0.1574031 -0.13246812 100
3.2198844 0.16354778 -0.13541986 100
3.2146492 0.16969246 -0.13837162 100
3.209414 0.17583714 -0.14132336 100
3.204179 0.18198182 -0.1442751 100
3.1989439 0.1881265 -0.14722686 100
3.1937087 0.19427118 -0.1501786 100
3.1884735 0.20041586 -0.15313034 100
3.1832385 0.20656055 -0.15608209 100
3.1780033 0.21270522 -0.15903383 100
3.1727681 0.21884991 -0.16198558 100
3.1675329 0.22499458 -0.16493732 100
3.162298 0.23113926 -0.16788906 100
3.1570628 0.23728393 -0.1708408 100
3.1518276 0.24342859 -0.17379254 100
3.1465924 0.24957326 -0.17674428 100
3.1413574 0.25571793 -0.17969602 100
3.1361222 0.26186261 -0.18264776 100
3.130887 0.26800728 -0.18559951 100
3.1256518 0.27415195 -0.18855125 100
3.1204169 0.28029662 -0.19150299 100
3.1151817 0.2864413 -0.19445473 100
3.1099465 0.29258597 -0.19740647 100
3.1047113 0.29873064 -0.20035821 100
3.0994763 0.30487531 -0.20330995 100
3.0942411 0.31101999 -0.20626169 100
3.0890059 0.31716466 -0.20921344 100
3.0837708 0.32330933 -0.21216519 100
3.0785358 0.329454 -0.21511693 100
3.0733006 0.33559868 -0.21806867 100
3.0680654 0.34174335 -0.22102042 100
3.0628302 0.34788802 -0.22397216 100
3.0575953 0.3540327 -0.2269239 100
3.0523601 0.36017737 -0.22987564 100
3.0471249 0.36632204 -0.23282738 100
3.0418899 0.37246671 -0.23577912 100
3.0366547 0.37861139 -0.23873086 100
3.0314195 0.38475606 -0.2416826 100
3.0261843 0.39090073 -0.24463435 100
3.0209494 0.3970454 -0.24758609 100
3.0157142 0.40319008 -0.25053781 100
3.010479 0.40933475 -0.25348955 100
