# .PCD v0.7 - Point Cloud Data file format
VERSION 0.7
FIELDS x y z intensity
SIZE 4 4 4 4
TYPE F F F F
COUNT 1 1 1 1
WIDTH 158
HEIGHT 1
VIEWPOINT 0 0 0 1 0 0 0
POINTS 158
DATA ascii
3.3055634 0.051825393 -0.065546557 100
3.301055 0.051105604 -0.058742035 100
3.2965465 0.050385814 -0.051937509 100
3.292038 0.049666025 -0.045132987 100
3.2875295 0.048946232 -0.038328461 100
3.283021 0.048226442 -0.031523935 100
3.2785125 0.047506653 -0.02471941 100
3.2740037 0.046786863 -0.017914886 100
3.2694952 0.046067074 -0.011110362 100
3.2649868 0.045347285 -0.0043058377 100
3.2604783 0.044627495 0.0024986858 100
3.2559698 0.043907706 0.0093032094 100
3.2514613 0.043187913 0.016107732 100
3.2469528 0.042468123 0.022912262 100
3.2424443 0.041748334 0.02971679 100
3.2379355 0.041028544 0.036521319 100
3.233427 0.040308751 0.043325849 100
3.2289186 0.039588962 0.050130375 100
3.2244101 0.038869172 0.056934904 100
3.2199016 0.038149383 0.063739434 100
3.2153931 0.037429594 0.07054396 100
3.2108846 0.0367098 0.077348493 100
3.2063761 0.035990011 0.084153019 100
3.2018673 0.035270222 0.090957552 100
3.1973588 0.034550432 0.097762078 100
3.1928504 0.033830639 0.1045666 100
3.1883419 0.03311085 0.11137112 100
3.1838334 0.03239106 0.11817564 100
3.1793249 0.031671271 0.12498016 100
3.1748164 0.030951483 0.13178468 100
3.1703079 0.030231694 0.1385892 100
3.1657994 0.029511904 0.14539371 100
3.1612906 0.028792115 0.15219824 100
3.1567822 0.028072326 0.15900275 100
3.1522737 0.027352536 0.16580728 100
3.1477652 0.026632747 0.17261179 100
3.1432567 0.025912959 0.17941631 100
3.1387482 0.02519317 0.18622082 100
3.1342397 0.02447338 0.19302535 100
3.1297312 0.023753591 0.19982986 100
3.1252227 0.023033801 0.20663439 100
3.1207142 0.022314012 0.2134389 100
3.1162055 0.021594223 0.22024342 100
3.111697 0.020874433 0.22704794 100
3.1071885 0.020154644 0.23385246 100
3.0471714 -0.27760279 -0.29355398 100
3.0520046 -0.27165294 -0.28974411 100
3.056838 -0.26570308 -0.28593427 100
3.0616713 -0.25975323 -0.28212443 100
3.0665047 -0.25380337 -0.27831456 100
3.0713379 -0.24785352 -0.27450472 100
3.0761714 -0.24190365 -0.27069488 100
3.0810046 -0.23595379 -0.26688501 100
3.0858381 -0.23000394 -0.26307517 100
3.0906713 -0.22405408 -0.25926533 100
3.0955048 -0.21810423 -0.25545549 100
3.100338 -0.21215437 -0.25164562 100
3.1051712 -0.20620452 -0.24783579 100
3.1100047 -0.20025466 -0.24402593 100
3.1148379 -0.19430479 -0.24021609 100
3.1196713 -0.18835494 -0.23640624 100
3.1245046 -0.18240508 -0.23259638 100
3.129338 -0.17645521 -0.22878653 100
3.1341712 -0.17050536 -0.22497669 100
3.1390047 -0.16455549 -0.22116683 100
3.1438379 -0.15860564 -0.21735698 100
3.1486714 -0.15265578 -0.21354713 100
3.1535046 -0.14670591 -0.20973729 100
3.1583381 -0.14075606 -0.20592743 100
3.1631713 -0.1348062 -0.20211758 100
3.1680045 -0.12885633 -0.19830772 100
3.172838 -0.12290648 -0.19449788 100
3.1776712 -0.11695664 -0.19068804 100
3.1825047 -0.11100678 -0.18687819 100
3.1873379 -0.10505693 -0.18306835 100
3.1921713 -0.099107079 -0.17925851 100
3.1970046 -0.093157224 -0.17544866 100
3.2018378 -0.087207377 -0.17163882 100
3.2066712 -0.081257522 -0.16782896 100
3.2115045 -0.075307675 -0.16401912 100
3.2163379 -0.06935782 -0.16020928 100
3.2211711 -0.063407972 -0.15639943 100
3.2260046 -0.057458121 -0.15258959 100
3.2308378 -0.051508266 -0.14877975 100
3.2356713 -0.045558415 -0.1449699 100
3.2405045 -0.039608564 -0.14116006 100
3.2453377 -0.033658713 -0.13735022 100
3.2501712 -0.027708862 -0.13354036 100
3.2550044 -0.021759011 -0.12973052 100
3.2598379 -0.01580916 -0.12592067 100
3.2646711 -0.0098593086 -0.12211083 100
3.2695045 -0.003909457 -0.11830098 100
3.2743378 0.0020403941 -0.11449114 100
3.279171 0.0079902457 -0.1106813 100
3.2840044 0.013940097 -0.10687145 100
3.2888377 0.019889949 -0.10306161 100
3.2936711 0.0258398 -0.099251762 100
3.2985044 0.031789649 -0.095441915 100
3.3033378 0.037739504 -0.091632068 100
3.308171 0.043689355 -0.087822229 100
3.3130043 0.049639206 -0.084012382 100
3.2872589 0.08692015 -0.097262561 100
3.2819757 0.093027681 -0.10013911 100
3.2766926 0.099135213 -0.10301565 100
3.2714095 0.10524274 -0.1058922 100
3.2661262 0.11135027 -0.10876875 100
3.260843 0.1174578 -0.11164529 100
3.2555599 0.12356533 -0.11452184 100
3.2502768 0.12967286 -0.11739838 100
3.2449937 0.13578039 -0.12027492 100
3.2397106 0.14188792 -0.12315147 100
3.2344275 0.14799544 -0.12602802 100
3.2291443 0.15410298 -0.12890455 100
3.2238612 0.16021051 -0.1317811 100
3.2185779 0.16631804 -0.13465765 100
3.2132947 0.17242557 -0.1375342 100
3.2080116 0.17853311 -0.14041074 100
3.2027285 0.18464063 -0.14328729 100
3.1974454 0.19074817 -0.14616384 100
3.1921623 0.19685571 -0.14904039 100
3.1868792 0.20296323 -0.15191694 100
3.1815958 0.20907077 -0.15479347 100
3.1763127 0.2151783 -0.15767002 100
3.1710296 0.22128583 -0.16054657 100
3.1657465 0.22739337 -0.16342312 100
3.1604633 0.2335009 -0.16629967 100
3.1551802 0.23960844 -0.16917621 100
3.1498971 0.24571596 -0.17205276 100
3.144614 0.25182348 -0.17492929 100
3.1393309 0.25793099 -0.17780584 100
3.1340475 0.26403853 -0.18068238 100
3.1287644 0.27014604 -0.18355893 100
3.1234813 0.27625358 -0.18643546 100
3.1181982 0.28236109 -0.18931201 100
3.112915 0.28846863 -0.19218855 100
3.1076319 0.29457614 -0.1950651 100
3.1023488 0.30068368 -0.19794163 100
3.0970657 0.30679119 -0.20081818 100
3.0917826 0.31289873 -0.20369472 100
3.0864995 0.31900623 -0.20657127 100
3.0812161 0.32511377 -0.2094478 100
3.075933 0.33122128 -0.21232435 100
3.0706499 0.33732882 -0.21520089 100
3.0653667 0.34343633 -0.21807744 100
3.0600836 0.34954387 -0.22095397 100
3.0548005 0.35565138 -0.22383052 100
3.0495174 0.36175892 -0.22670706 100
3.0442343 0.36786643 -0.22958361 100
3.0389512 0.37397397 -0.23246014 100
3.033668 0.38008147 -0.23533669 100
3.0283847 0.38618901 -0.23821323 100
3.0231016 0.39229652 -0.24108978 100
3.0178185 0.39840406 -0.24396631 100
3.0125353 0.40451157 -0.24684286 100
3.0072522 0.41061911 -0.2497194 100
3.0019691 0.41672662 -0.25259593 100
2.996686 0.42283416 -0.25547248 100
2.9914029 0.42894167 -0.25834903 100
