# .PCD v0.7 - Point Cloud Data file format
VERSION 0.7
FIELDS x y z rgb
SIZE 4 4 4 4
TYPE F F F U
COUNT 1 1 1 1
WIDTH 417
HEIGHT 1
VIEWPOINT 0 0 0 1 0 0 0
POINTS 417
DATA ascii
2.9986067 0.43798435 -0.26512775 4284408259
2.917151 0.42504683 -0.15449576 4284408259
3.0060344 0.42835844 -0.26565069 4284408259
3.0153325 0.41948506 -0.26634794 4284408259
2.9358032 0.40737665 -0.15533313 4284408259
3.0029578 0.40708265 -0.26512775 4284408259
2.9550204 0.39953536 -0.15627518 4284408259
2.8894031 0.38963521 -0.050891217 4284408259
3.0043602 0.39659998 -0.26512775 4284408259
2.9702585 0.39104205 -0.15700789 4284408259
3.0096788 0.38661733 -0.26547641 4284408259
2.9716053 0.38067216 -0.15700789 4284408259
2.9039547 0.3709743 -0.051100649 4284408259
3.0031018 0.37512061 -0.26477915 4284408259
2.9828258 0.37153056 -0.15753125 4284408259
2.9210441 0.36331752 -0.051379886 4284408259
3.0142822 0.36583641 -0.26565069 4284408259
2.9919724 0.36259884 -0.15794992 4284408259
2.9183235 0.35263979 -0.051310074 4284408259
2.9996498 0.35397136 -0.26425621 4284408259
3.0110719 0.35425365 -0.15889199 4284408259
2.9314535 0.34384775 -0.051519506 4284408259
2.8664374 0.33165821 0.050367646 4284408259
2.9988878 0.34327114 -0.2640819 4284408259
3.0321341 0.34600452 -0.15993871 4284408259
2.9405832 0.33451769 -0.051659122 4284408259
2.8695648 0.32187259 0.050402552 4284408259
3.004086 0.33271664 -0.26443052 4284408259
3.0293529 0.33497843 -0.15972935 4284408259
2.965585 0.32688081 -0.052077983 4284408259
2.8865747 0.3135823 0.050681788 4284408259
3.0111725 0.32286483 -0.26495346 4284408259
3.0444622 0.3253594 -0.16046207 4284408259
2.9667079 0.3165262 -0.052077983 4284408259
2.9075923 0.30508777 0.051030833 4284408259
3.0162446 0.31276354 -0.26530206 4284408259
3.0535259 0.31555066 -0.16088074 4284408259
2.9677947 0.30616915 -0.052077983 4284408259
2.9165461 0.29625311 0.051170457 4284408259
2.9955108 0.30004781 -0.26338464 4284408259
3.0784035 0.30780971 -0.16213681 4284408259
2.9768047 0.29660001 -0.052217599 4284408259
2.9175625 0.28606987 0.051170457 4284408259
3.0024385 0.29068932 -0.26390758 4284408259
3.0874116 0.2978285 -0.1625555 4284408259
3.0017083 0.28850362 -0.052636456 4284408259
2.9304883 0.27701232 0.051379886 4284408259
3.005419 0.2803928 -0.2640819 4284408259
3.0943985 0.28760329 -0.16286951 4284408259
3.0146441 0.27912933 -0.052845888 4284408259
2.9473689 0.26823181 0.051659122 4284408259
2.8643072 0.25966457 0.15072757 4284408259
2.894489 0.26036361 -0.35683349 4284408259
3.0083637 0.27007756 -0.26425621 4284408259
3.1013513 0.27733439 -0.16318353 4284408259
3.0315349 0.27002308 -0.053125124 4284408259
2.9562557 0.25863829 0.051798742 4284408259
2.8771346 0.25070557 0.15135561 4284408259
2.8914247 0.24991569 -0.35634598 4284408259
3.0291383 0.26128763 -0.26599932 4284408259
3.1142404 0.26753181 -0.16381156 4284408259
3.0324588 0.25944149 -0.053125124 4284408259
2.9730818 0.24965814 0.052077983 4284408259
2.8978953 0.24232452 0.15240233 4284408259
2.8724961 0.23818283 -0.3539086 4284408259
3.0022335 0.24841145 -0.26355895 4284408259
3.1350603 0.25830162 -0.16485828 4284408259
3.0453038 0.24983488 -0.053334557 4284408259
2.9739354 0.23927784 0.052077983 4284408259
2.9226139 0.2341219 0.15365838 4284408259
2.8930988 0.22972505 -0.35634598 4284408259
3.0090408 0.23840147 -0.2640819 4284408259
3.1458983 0.24814107 -0.16538164 4284408259
3.07008 0.24108246 -0.053753413 4284408259
2.97874 0.22920145 0.052147791 4284408259
2.9273963 0.22422293 0.15386772 4284408259
2.8879449 0.2191734 -0.35561478 4284408259
3.0078678 0.22774816 -0.26390758 4284408259
3.1507285 0.23745766 -0.16559097 4284408259
3.0788794 0.23096193 -0.05389303 4284408259
2.9954765 0.21997458 0.052427031 4284408259
2.9201934 0.21342136 0.15344904 4284408259
2.878793 0.20837533 -0.3543961 4284408259
3.0165935 0.21782053 -0.26460484 4284408259
3.1535304 0.22660194 -0.16569565 4284408259
3.0956235 0.22135341 -0.05417227 4284408259
3.0161743 0.21091117 0.05277608 4284408259
2.9328754 0.20405905 0.15407708 4284408259
2.8676202 0.19750603 -0.35293365 4284408259
3.0173354 0.20728995 -0.26460484 4284408259
3.158287 0.21586423 -0.165905 4284408259
3.1043577 0.21108961 -0.05431189 4284408259
3.0288644 0.2011773 0.052985508 4284408259
2.9534988 0.19513609 0.1551238 4284408259
2.8682921 0.18749556 -0.35293365 4284408259
3.0140641 0.19649619 -0.26425621 4284408259
3.1729732 0.20574377 -0.1666377 4284408259
3.1130576 0.20076753 -0.054451507 4284408259
3.0335393 0.19085512 0.053055316 4284408259
2.9661219 0.18557416 0.15575182 4284408259
2.9012554 0.1810075 0.25432047 4284408259
2.8808172 0.17821687 -0.3543961 4284408259
3.0047886 0.18535975 -0.26338464 4284408259
3.1736722 0.19466592 -0.1666377 4284408259
3.1297076 0.19087423 -0.054730747 4284408259
3.0381794 0.18050131 0.053125124 4284408259
2.9787145 0.17592508 0.15637985 4284408259
2.8814216 0.16816047 -0.3543961 4284408259
3.0153625 0.17544925 -0.26425621 4284408259
3.1623685 0.1828953 -0.16600966 4284408259
3.1463261 0.18086562 -0.055009987 4284408259
3.0547636 0.17078863 0.053404365 4284408259
2.9792817 0.16604552 0.15637985 4284408259
2.9183631 0.16162993 0.25571495 4284408259
2.8760171 0.15827636 -0.35366488 4284408259
3.017946 0.1650306 -0.26443052 4284408259
3.1689706 0.17218119 -0.16632369 4284408259
3.1588888 0.17107899 -0.055219412 4284408259
3.0792763 0.16191693 0.053823221 4284408259
2.9917829 0.15679272 0.15700789 4284408259
2.9268417 0.15236491 0.25641218 4284408259
2.8785083 0.14884272 -0.3539086 4284408259
3.0224564 0.1552268 -0.26477915 4284408259
3.165535 0.16146721 -0.16611435 4284408259
3.1634331 0.16080646 -0.055289224 4284408259
3.0877855 0.15209894 0.053962842 4284408259
3.0002913 0.14673938 0.15742657 4284408259
2.9313109 0.14285286 0.25676081 4284408259
2.8829763 0.13898437 -0.3543961 4284408259
3.0189743 0.14501111 -0.26443052 4284408259
3.176028 0.1514453 -0.1666377 4284408259
3.1679702 0.14995281 -0.055359036 4284408259
3.0922928 0.14150164 0.05403265 4284408259
3.0247278 0.13735193 0.15868263 4284408259
2.9477148 0.13333929 0.25815532 4284408259
2.8834438 0.12891929 -0.3543961 4284408259
3.0274234 0.13482867 -0.26512775 4284408259
3.1705513 0.14009263 -0.16632369 4284408259
3.1924477 0.13994367 -0.055777889 4284408259
3.1007593 0.13104504 0.05417227 4284408259
3.0371618 0.12729383 0.15931067 4284408259
2.9481621 0.12304965 0.25815532 4284408259
2.8898263 0.11909923 -0.35512727 4284408259
3.0278757 0.12425937 -0.26512775 4284408259
3.1670296 0.12886275 -0.16611435 4284408259
3.2089012 0.12944303 -0.056057129 4284408259
3.1251767 0.12114929 0.05459113 4284408259
3.0415792 0.11684681 0.15952002 4284408259
2.9764469 0.11382302 0.26059568 4284408259
2.880306 0.10863626 -0.3539086 4284408259
3.0362549 0.11398754 -0.265825 4284408259
3.1634684 0.11765767 -0.165905 4284408259
3.2333133 0.11912681 -0.056475986 4284408259
3.1415677 0.1108057 0.054870363 4284408259
3.0539448 0.10664642 0.16014804 4284408259
2.9847906 0.10371138 0.2612929 4284408259
2.8806677 0.098582067 -0.3539086 4284408259
3.0346432 0.10332117 -0.26565069 4284408259
3.1698484 0.10681684 -0.16621901 4284408259
3.2337096 0.10783885 -0.056475986 4284408259
3.1579249 0.10034615 0.055149604 4284408259
3.0702686 0.096488051 0.16098543 4284408259
2.9931002 0.093540028 0.26199016 4284408259
2.8928993 0.088892482 -0.35537103 4284408259
3.029011 0.092544325 -0.26512775 4284408259
3.1721983 0.095812328 -0.16632369 4284408259
3.2460592 0.096909158 -0.056685418 4284408259
3.1582561 0.089321479 0.055149604 4284408259
3.0865436 0.086755686 0.1618228 4284408259
2.9973917 0.083201364 0.26233879 4284408259
2.8971608 0.078901149 -0.3558585 4284408259
3.0293155 0.081971176 -0.26512775 4284408259
3.1824963 0.085004501 -0.16684705 4284408259
3.2663527 0.086673856 -0.057034463 4284408259
3.1745274 0.079247691 0.055428844 4284408259
3.1028006 0.076373458 0.16266017 4284408259
3.0175819 0.073221952 0.2640819 4284408259
2.8934374 0.069197662 -0.35537103 4284408259
3.0315752 0.071443975 -0.26530206 4284408259
3.1707802 0.074169375 -0.16621901 4284408259
3.2786305 0.075548716 -0.057243895 4284408259
3.1867802 0.06842275 0.055638272 4284408259
3.1070421 0.065627202 0.16286951 4284408259
3.0357356 0.063589573 0.26565069 4284408259
2.881753 0.058854662 -0.3539086 4284408259
3.0357792 0.061470345 -0.26565069 4284408259
3.1710198 0.0631015 -0.16621901 4284408259
3.2948687 0.064415522 -0.057523135 4284408259
3.220989 0.057910156 0.056231655 4284408259
3.1112461 0.054850787 0.16307886 4284408259
3.0458996 0.053166993 0.26652226 4284408259
2.891865 0.048963744 -0.35512727 4284408259
3.0439441 0.051007289 -0.26634794 4284408259
3.1712208 0.052032862 -0.16621901 4284408259
3.3050706 0.053075127 -0.057697657 4284408259
3.2231712 0.046696104 0.056266561 4284408259
3.1313894 0.044271693 0.16412558 4284408259
3.0580199 0.042702049 0.26756814 4284408259
2.991257 0.040724073 0.36731425 4284408259
2.8940034 0.038896244 -0.35537103 4284408259
3.0401189 0.040327966 -0.26599932 4284408259
3.1833658 0.041118361 -0.16684705 4284408259
3.307235 0.0415622 -0.05773256 4284408259
3.2113168 0.035312064 0.056057129 4284408259
3.1455047 0.033490337 0.16485828 4284408259
3.0581503 0.032026496 0.26756814 4284408259
2.987411 0.030242829 0.36682677 4284408259
2.8961065 0.028813027 -0.35561478 4284408259
3.0342643 0.029657945 -0.26547641 4284408259
3.1854868 0.030024063 -0.16695172 4284408259
3.2953627 0.029909346 -0.057523135 4284408259
3.2054214 0.024057915 0.055952415 4284408259
3.1575859 0.022595186 0.16548631 4284408259
3.0801592 0.021503551 0.26948556 4284408259
2.9954386 0.019866498 0.3678017 4284408259
2.8981743 0.0187156 -0.3558585 4284408259
3.0443113 0.019129442 -0.26634794 4284408259
3.1755862 0.018844351 -0.16642836 4284408259
3.2874482 0.01836065 -0.057383511 4284408259
3.199487 0.012843824 0.055847701 4284408259
3.1336784 0.011487331 0.16423026 4284408259
3.0842001 0.010766216 0.26983419 4284408259
2.9954896 0.0094124051 0.3678017 4284408259
2.8962369 0.0085936897 -0.35561478 4284408259
3.0463517 0.0085074473 -0.26652226 4284408259
3.1796272 0.0077698026 -0.1666377 4284408259
3.2674954 0.0068424521 -0.057034463 4284408259
3.1875143 0.0016683209 0.055638272 4284408259
3.1197186 0.00054540293 0.16349754 4284408259
3.0762494 -0 0.26913694 4284408259
2.9974892 -0.0010463211 0.36804545 4284408259
2.8942645 -0.0015154334 -0.35537103 4284408259
3.0483553 -0.0021281538 -0.26669657 4284408259
3.1896212 -0.0033401644 -0.16716106 4284408259
3.2355042 -0.0045176186 -0.056475986 4284408259
3.1755023 -0.0094219334 0.055428844 4284408259
3.1117125 -0.010318868 0.16307886 4284408259
3.0543146 -0.010661612 0.26721951 4284408259
2.9934971 -0.01149426 0.36755794 4284408259
2.9001966 -0.011642197 -0.35610226 4284408259
3.0423522 -0.012743849 -0.26617363 4284408259
3.1975789 -0.014510252 -0.16757976 4284408259
3.2234709 -0.015752975 -0.056266561 4284408259
3.1554537 -0.020377314 0.055079795 4284408259
3.0996742 -0.021099137 0.16245082 4284408259
3.0383198 -0.021211818 0.265825 4284408259
2.9160187 -0.021884885 -0.35805216 4284408259
3.0502584 -0.023424763 -0.26687086 4284408259
3.199506 -0.025687831 -0.16768442 4284408259
3.2113981 -0.026904376 -0.056057129 4284408259
3.1433659 -0.031272419 0.054870363 4284408259
3.091593 -0.031836629 0.16203214 4284408259
3.0302582 -0.031733945 0.26512775 4284408259
2.9099696 -0.031998076 -0.35732093 4284408259
3.0421891 -0.033982992 -0.26617363 4284408259
3.1973996 -0.036833026 -0.16757976 4284408259
3.2032864 -0.038019158 -0.055917513 4284408259
3.1352394 -0.042137131 0.054730747 4284408259
3.063504 -0.042242579 0.16056673 4284408259
3.0261447 -0.042255692 0.26477915 4284408259
2.9038854 -0.042069301 -0.35658973 4284408259
3.0599813 -0.044864882 -0.26774243 4284408259
3.2012455 -0.048053764 -0.16778909 4284408259
3.1951365 -0.049077634 -0.055777889 4284408259
3.1230769 -0.052877788 0.054521319 4284408259
3.0593443 -0.052866928 0.16035739 4284408259
3.0140264 -0.052610025 0.2637333 4284408259
2.9096754 -0.052312549 -0.35732093 4284408259
3.0617981 -0.055582099 -0.26791674 4284408259
3.2050521 -0.059301794 -0.16799843 4284408259
3.1709535 -0.05977815 -0.055359036 4284408259
3.114876 -0.06361571 0.054381698 4284408259
3.0511646 -0.062847264 0.15993871 4284408259
2.9939046 -0.062713355 0.26199016 4284408259
2.9114594 -0.062511511 -0.35756469 4284408259
3.053618 -0.066096976 -0.26721951 4284408259
3.2048256 -0.070489161 -0.16799843 4284408259
3.1547444 -0.069938511 -0.055079795 4284408259
3.0866601 -0.0732802 0.05389303 4284408259
3.0429399 -0.073305041 0.15952002 4284408259
2.9857004 -0.072968945 0.2612929 4284408259
2.919174 -0.072362676 -0.35853964 4284408259
3.0533686 -0.07675568 -0.26721951 4284408259
3.2085676 -0.081217438 -0.16820778 4284408259
3.1504829 -0.080847599 -0.055009987 4284408259
3.0783896 -0.083836451 0.053753413 4284408259
3.0306866 -0.083596013 0.15889199 4284408259
2.9695089 -0.082427219 0.25989842 4284408259
2.9228723 -0.082664296 -0.35902712 4284408259
3.0610635 -0.087107286 -0.26791674 4284408259
3.1843071 -0.091726825 -0.16695172 4284408259
3.1421859 -0.091611229 -0.054870363 4284408259
3.0740807 -0.094458692 0.053683605 4284408259
3.014406 -0.093678273 0.15805461 4284408259
2.9711947 -0.092854477 0.26007274 4284408259
2.906693 -0.092362151 -0.35707721 4284408259
3.0726891 -0.098173618 -0.26896262 4284408259
3.175983 -0.10258366 -0.16653302 4284408259
3.1298554 -0.10218743 -0.054660939 4284408259
3.065738 -0.10491508 0.053543981 4284408259
2.9941001 -0.10350987 0.15700789 4284408259
2.964879 -0.10301775 0.2595498 4284408259
2.906353 -0.10250785 -0.35707721 4284408259
3.0703366 -0.10882812 -0.26878831 4284408259
3.1656256 -0.11331207 -0.16600966 4284408259
3.105499 -0.11224528 -0.054242078 4284408259
3.0493672 -0.11501292 0.053264745 4284408259
2.9937205 -0.11396061 0.15700789 4284408259
2.944592 -0.11260513 0.25780669 4284408259
2.919863 -0.11319057 -0.35878339 4284408259
3.0679471 -0.11946741 -0.26861399 4284408259
3.1552322 -0.12396942 -0.16548631 4284408259
3.0970957 -0.12276799 -0.054102462 4284408259
3.0329633 -0.12499775 0.052985508 4284408259
2.9853222 -0.12407818 0.1565892 4284408259
2.9282556 -0.1222183 0.25641218 4284408259
2.9293666 -0.12380119 -0.36000207 4284408259
3.0675116 -0.13017581 -0.26861399 4284408259
3.1487939 -0.13472633 -0.16517229 4284408259
3.0806656 -0.13288869 -0.053823221 4284408259
3.0125313 -0.13469084 0.052636456 4284408259
2.9728997 -0.13395873 0.15596117 4284408259
2.9278111 -0.13243906 0.25641218 4284408259
2.9249504 -0.13384435 -0.35951459 4284408259
3.0749993 -0.14124832 -0.26931125 4284408259
3.1203728 -0.14442405 -0.1637069 4284408259
3.0761881 -0.14345512 -0.053753413 4284408259
3.0120428 -0.14520572 0.052636456 4284408259
2.9524646 -0.14336655 0.15491444 4284408259
2.9125693 -0.14346753 -0.35805216 4284408259
3.0884175 -0.15266982 -0.27053142 4284408259
3.095912 -0.15412362 -0.16245082 4284408259
3.0716741 -0.15399188 -0.053683605 4284408259
2.9995353 -0.15509924 0.052427031 4284408259
2.9359899 -0.15284106 0.15407708 4284408259
2.9219625 -0.15415633 -0.35927087 4284408259
3.0818965 -0.16313352 -0.27000847 4284408259
3.0913663 -0.1647169 -0.16224147 4284408259
3.0431621 -0.16321374 -0.053194933 4284408259
2.990989 -0.16512769 0.052287407 4284408259
2.9394553 -0.1627972 0.15428641 4284408259
2.9273524 -0.16468948 -0.36000207 4284408259
3.0872765 -0.17422715 -0.27053142 4284408259
3.0907726 -0.17550679 -0.16224147 4284408259
3.0266323 -0.1723946 -0.052915696 4284408259
2.9704623 -0.17387673 0.051938362 4284408259
2.9269061 -0.17235237 0.15365838 4284408259
2.9307535 -0.17463216 -0.36048955 4284408259
3.0747166 -0.18428746 -0.26948556 4284408259
3.0821989 -0.18527582 -0.1618228 4284408259
3.0260122 -0.18295847 -0.052915696 4284408259
2.9618537 -0.18374924 0.051798742 4284408259
2.9183133 -0.18207069 0.1532397 4284408259
2.9420128 -0.18561128 -0.36195198 4284408259
3.0800533 -0.19485994 -0.27000847 4284408259
3.0576146 -0.19451195 -0.16056673 4284408259
3.0213642 -0.19326481 -0.052845888 4284408259
2.9611945 -0.19408695 0.051798742 4284408259
2.8937447 -0.19068052 0.15198363 4284408259
2.9294629 -0.19508825 -0.36048955 4284408259
3.1151381 -0.20799944 -0.27314609 4284408259
3.0469532 -0.20451505 -0.16004337 4284408259
3.0087001 -0.20300247 -0.052636456 4284408259
2.948529 -0.20359574 0.051589314 4284408259
2.8890765 -0.20050384 0.15177429 4284408259
2.9287641 -0.20531279 -0.36048955 4284408259
3.1064429 -0.21831334 -0.27244884 4284408259
3.0462208 -0.21514969 -0.16004337 4284408259
2.9840372 -0.21180458 -0.052217599 4284408259
2.9438114 -0.21359736 0.051519506 4284408259
2.8923428 -0.21087784 0.15198363 4284408259
2.9379282 -0.2162635 -0.36170825 4284408259
3.0818183 -0.22739619 -0.2703571 4284408259
3.0434594 -0.22563396 -0.15993871 4284408259
2.9673262 -0.22103116 -0.051938362 4284408259
2.911145 -0.22144507 0.050961025 4284408259
2.9411137 -0.22682273 -0.36219573 4284408259
3.0790191 -0.23799878 -0.27018279 4284408259
3.0366795 -0.23579241 -0.15962468 4284408259
2.9665365 -0.23138773 -0.051938362 4284408259
2.9103544 -0.23160551 0.050961025 4284408259
2.9482188 -0.23772597 -0.36317068 4284408259
3.0662541 -0.24778222 -0.26913694 4284408259
3.0059772 -0.24396744 -0.15805461 4284408259
2.9657106 -0.24174146 -0.051938362 4284408259
2.8975716 -0.24076961 0.0507516 4284408259
2.9355025 -0.24701698 -0.36170825 4284408259
3.0613999 -0.25814912 -0.26878831 4284408259
3.001127 -0.25412175 -0.15784526 4284408259
2.9568789 -0.2514146 -0.051798742 4284408259
2.8967133 -0.25088257 0.0507516 4284408259
2.9365997 -0.25743562 -0.36195198 4284408259
3.0565107 -0.26848516 -0.26843968 4284408259
2.9882846 -0.26354334 -0.15721723 4284408259
2.9320805 -0.25961807 -0.051379886 4284408259
2.8878534 -0.26027447 0.050611977 4284408259
2.9534752 -0.26930708 -0.36414564 4284408259
3.0396819 -0.27770257 -0.2670452 4284408259
2.9833686 -0.27360797 -0.15700789 4284408259
2.9192085 -0.26875138 -0.051170457 4284408259
2.8829453 -0.26998043 0.050542168 4284408259
3.0208426 -0.28661764 -0.26547641 4284408259
2.9704657 -0.28288412 -0.15637985 4284408259
2.9102902 -0.27817857 -0.051030833 4284408259
3.0198238 -0.2971606 -0.26547641 4284408259
2.9436214 -0.29069954 -0.15501912 4284408259
2.913332 -0.28822172 -0.051100649 4284408259
3.0128751 -0.306568 -0.26495346 4284408259
2.9386675 -0.3000536 -0.15480977 4284408259
2.8964455 -0.29625329 -0.050821409 4284408259
3.003861 -0.31624857 -0.26425621 4284408259
2.9297111 -0.30895907 -0.15439108 4284408259
2.9113026 -0.3080453 -0.051100649 4284408259
2.9789705 -0.32414582 -0.26216447 4284408259
2.9206173 -0.31882796 -0.1539724 4284408259
2.965941 -0.33320773 -0.26111859 4284408259
2.9115481 -0.32812619 -0.15355371 4284408259
