# .PCD v0.7 - Point Cloud Data file format
VERSION 0.7
FIELDS x y z rgb
SIZE 4 4 4 4
TYPE F F F U
COUNT 1 1 1 1
WIDTH 1114
HEIGHT 1
VIEWPOINT 0 0 0 1 0 0 0
POINTS 1114
DATA ascii
6.6332989 -2.9978371 1.1529222 4294901760
4.2681012 -1.9298127 -0.40980628 4294901760
12.17067 -5.5055003 2.596529 4294901760
4.8346519 -2.1880102 -0.27811331 4294901760
12.092985 -5.4754453 3.064733 4294901760
5.6107321 -2.5404196 -0.10750683 4294901760
11.930924 -5.4045768 3.5095863 4294901760
2.6343958 -1.1977879 -0.77542186 4294901760
6.6934953 -3.0433497 0.128345 4294901760
2.8541117 -1.298288 -0.72389251 4294901760
7.0896616 -3.2264626 0.4082205 4294901760
3.1196997 -1.4204141 -0.66630507 4294901760
10.634075 -4.843986 1.0223368 4294901760
3.4155529 -1.5558373 -0.59445107 4294901760
12.335613 -5.6216631 1.6644917 4294901760
3.7876296 -1.7269207 -0.51112008 4294901760
6.6263885 -3.022613 1.1535479 4294901760
4.2577143 -1.943045 -0.40945768 4294901760
4.8201027 -2.2007124 -0.27769461 4294901760
12.088943 -5.5219941 3.0683322 4294901760
5.6018305 -2.5599892 -0.10750683 4294901760
11.919014 -5.4494038 3.511657 4294901760
2.6268973 -1.2049066 -0.77438658 4294901760
6.6810131 -3.0658617 0.12831008 4294901760
2.8548756 -1.3106821 -0.7252422 4294901760
6.8133712 -3.1294794 0.39293841 4294901760
3.1149724 -1.4307516 -0.66630507 4294901760
6.7980242 -3.1238675 0.65453959 4294901760
3.426254 -1.5751762 -0.59726685 4294901760
6.6836696 -3.0741446 0.90329564 4294901760
3.7851851 -1.741791 -0.51160759 4294901760
4.263916 -1.9629858 -0.41067785 4294901760
12.16501 -5.6029987 2.6033981 4294901760
4.7996936 -2.2116733 -0.27696192 4294901760
12.064284 -5.5617113 3.0669827 4294901760
5.5801492 -2.5736649 -0.10726249 4294901760
11.905182 -5.4934034 3.5132098 4294901760
2.6226754 -1.2140689 -0.77438658 4294901760
6.6521249 -3.0807607 0.12796104 4294901760
2.8555875 -1.3230971 -0.72659194 4294901760
6.7444201 -3.1263642 0.38958889 4294901760
3.099272 -1.4366622 -0.66401535 4294901760
6.702127 -3.1081805 0.64634699 4294901760
3.4207349 -1.5871266 -0.59726685 4294901760
3.7862837 -1.7583377 -0.51258254 4294901760
4.2389693 -1.9694628 -0.40893474 4294901760
12.111552 -5.6297054 2.5961473 4294901760
4.8064318 -2.2351511 -0.27779928 4294901760
12.04833 -5.6054335 3.0678825 4294901760
5.5693183 -2.5922837 -0.10722758 4294901760
11.885933 -5.5349264 3.5132098 4294901760
2.6149211 -1.221581 -0.77335137 4294901760
6.6395192 -3.1031153 0.12792614 4294901760
2.8509517 -1.333057 -0.72659194 4294901760
3.0995729 -1.4499674 -0.66516018 4294901760
3.4080179 -1.5957069 -0.59601539 4294901760
6.6602478 -3.1198881 0.90305191 4294901760
3.7837179 -1.7732283 -0.51306999 4294901760
4.2371335 -1.9875244 -0.40945768 4294901760
4.802217 -2.2536125 -0.27800864 4294901760
12.048095 -5.6565661 3.0728314 4294901760
5.5710955 -2.6168094 -0.10743701 4294901760
11.868289 -5.5772042 3.5137274 4294901760
2.6174152 -1.2344532 -0.77542186 4294901760
6.6250291 -3.1245668 0.12785633 4294901760
2.8357065 -1.338011 -0.72389251 4294901760
8.1276007 -3.8366942 0.47102362 4294901760
3.0960128 -1.4621567 -0.66554183 4294901760
10.615845 -5.01582 1.0272175 4294901760
3.3914311 -1.6031221 -0.59413815 4294901760
12.254126 -5.7924986 1.664248 4294901760
3.7721217 -1.7838793 -0.51233876 4294901760
12.18321 -5.7641807 2.1347051 4294901760
4.2301698 -2.0023029 -0.40945768 4294901760
4.7848997 -2.2669227 -0.27748525 4294901760
12.013194 -5.6940093 3.0692322 4294901760
5.5691552 -2.6396663 -0.10757664 4294901760
11.857476 -5.6227369 3.5163157 4294901760
2.6130903 -1.243582 -0.77542186 4294901760
6.6225605 -3.153126 0.12803085 4294901760
2.8325429 -1.3492335 -0.72434241 4294901760
8.1134844 -3.8664577 0.47102362 4294901760
3.1015244 -1.4780225 -0.66783154 4294901760
10.576691 -5.0425568 1.0251257 4294901760
3.4000781 -1.6217542 -0.59664112 4294901760
12.239978 -5.8407927 1.6652229 4294901760
3.7583923 -1.7942717 -0.5113638 4294901760
12.160218 -5.8079438 2.1343923 4294901760
4.2357397 -2.0230672 -0.41067785 4294901760
12.068644 -5.7667933 2.5999634 4294901760
4.7769575 -2.2836111 -0.27748525 4294901760
11.984454 -5.7317042 3.0669827 4294901760
5.5522275 -2.6566081 -0.10743701 4294901760
11.84376 -5.6694961 3.5183864 4294901760
2.6122165 -1.2543685 -0.77645719 4294901760
6.6025014 -3.1718938 0.12785633 4294901760
2.8278158 -1.3591129 -0.72434241 4294901760
8.1035404 -3.896487 0.47123301 4294901760
3.0804219 -1.4811828 -0.66439694 4294901760
10.530298 -5.0656266 1.0223368 4294901760
3.3872766 -1.6301861 -0.59538966 4294901760
12.219516 -5.8834825 1.6652229 4294901760
3.7538946 -1.8082416 -0.51160759 4294901760
12.129194 -5.8452106 2.132515 4294901760
4.2196774 -2.0335155 -0.40980628 4294901760
12.055515 -5.8122969 2.60149 4294901760
4.7779522 -2.3046105 -0.27800864 4294901760
11.969639 -5.7760444 3.0683322 4294901760
5.5249124 -2.6672788 -0.10708796 4294901760
11.827376 -5.7124839 3.5194216 4294901760
2.6008677 -1.2601098 -0.77438658 4294901760
6.5859904 -3.1923051 0.12775162 4294901760
2.8353286 -1.3749274 -0.72749174 4294901760
8.0977612 -3.9268231 0.47165167 4294901760
3.0717001 -1.4902127 -0.6636337 4294901760
10.566324 -5.1284523 1.0275662 4294901760
3.3922272 -1.6471769 -0.59726685 4294901760
12.202476 -5.9278359 1.6657103 4294901760
3.7529161 -1.8239373 -0.51233876 4294901760
12.12218 -5.8914442 2.1347051 4294901760
4.2053866 -2.0447478 -0.40910906 4294901760
12.042214 -5.8577776 2.6030164 4294901760
4.7680826 -2.3204007 -0.27790397 4294901760
11.951157 -5.8186431 3.0687821 4294901760
5.5340161 -2.694339 -0.10743701 4294901760
11.799683 -5.7474437 3.5168333 4294901760
2.5964534 -1.269181 -0.77438658 4294901760
6.5645895 -3.2088587 0.1275422 4294901760
2.8307536 -1.384322 -0.72749174 4294901760
8.0840054 -3.955066 0.47165167 4294901760
3.0752962 -1.5052413 -0.66554183 4294901760
10.519728 -5.1512852 1.0247772 4294901760
3.3796499 -1.6549422 -0.59601539 4294901760
12.191665 -5.9726343 1.666929 4294901760
3.7539773 -1.839867 -0.51331371 4294901760
12.09622 -5.9311137 2.1337664 4294901760
4.1982236 -2.0594149 -0.40910906 4294901760
12.015673 -5.8942204 2.60149 4294901760
4.7729125 -2.3423588 -0.27863666 4294901760
11.937043 -5.8608198 3.070132 4294901760
5.5281672 -2.7154033 -0.10750683 4294901760
11.789951 -5.7937093 3.5199392 4294901760
2.5991614 -1.2812006 -0.77645719 4294901760
6.5587282 -3.2344069 0.12764689 4294901760
2.8206611 -1.3916082 -0.72614199 4294901760
8.0773153 -3.9867964 0.47207037 4294901760
3.0773299 -1.5189067 -0.66706824 4294901760
10.531172 -5.2002554 1.0275662 4294901760
3.3632264 -1.6614796 -0.59413815 4294901760
12.168962 -6.0142751 1.6666852 4294901760
3.7404141 -1.8494401 -0.51233876 4294901760
12.089608 -5.9803081 2.1362693 4294901760
4.2003002 -2.0777421 -0.4099806 4294901760
11.995025 -5.9361277 2.60149 4294901760
4.7450175 -2.349257 -0.27748525 4294901760
11.94096 -5.9145613 3.0764306 4294901760
5.5240307 -2.7373471 -0.10761154 4294901760
11.776581 -5.8382616 3.5220098 4294901760
2.5946732 -1.2902656 -0.77645719 4294901760
6.5384464 -3.2528276 0.12747237 4294901760
2.8105526 -1.3988408 -0.7247923 4294901760
8.0579853 -4.0122962 0.47175637 4294901760
3.0684943 -1.5278891 -0.66630507 4294901760
10.512955 -5.2369847 1.0275662 4294901760
3.3627102 -1.6758525 -0.5950768 4294901760
20.968351 -10.454434 2.876848 4294901760
3.7303827 -1.8607132 -0.51185131 4294901760
12.047449 -6.011888 2.132515 4294901760
4.1948047 -2.093281 -0.41015494 4294901760
11.981257 -5.9814687 2.6030164 4294901760
4.7421489 -2.3684833 -0.27779928 4294901760
11.906296 -5.9492383 3.0728314 4294901760
5.5108643 -2.7548246 -0.10754173 4294901760
11.761312 -5.8819256 3.5235624 4294901760
2.5936074 -1.3010472 -0.77749246 4294901760
6.5556488 -3.2899826 0.12803085 4294901760
2.8091357 -1.4103916 -0.72569209 4294901760
8.031436 -4.0341239 0.47102362 4294901760
3.057879 -1.5359473 -0.66516018 4294901760
10.508853 -5.280807 1.0289607 4294901760
3.3603697 -1.689355 -0.59570253 4294901760
20.951241 -10.537375 2.879529 4294901760
3.7274115 -1.8755078 -0.51233876 4294901760
12.036978 -6.0592341 2.1343923 4294901760
4.194591 -2.1114941 -0.41085216 4294901760
11.953291 -6.0197229 2.60149 4294901760
4.7356362 -2.3859208 -0.27790397 4294901760
11.880237 -5.988132 3.0714817 4294901760
5.501214 -2.7740445 -0.10754173 4294901760
11.754508 -5.9299059 3.5277038 4294901760
2.5752599 -1.3031148 -0.77335137 4294901760
6.5334196 -3.3074269 0.12782143 4294901760
2.8076725 -1.4219497 -0.72659194 4294901760
8.0244331 -4.0657454 0.47144234 4294901760
3.0472453 -1.54395 -0.66401535 4294901760
10.490355 -5.3174572 1.0289607 4294901760
3.357976 -1.7028614 -0.59632826 4294901760
20.795719 -10.550271 2.8631985 4294901760
3.7279232 -1.8921014 -0.51331371 4294901760
12.029843 -6.1083689 2.1368952 4294901760
4.1676536 -2.1162009 -0.40893474 4294901760
11.932205 -6.0614114 2.60149 4294901760
4.7415233 -2.4096756 -0.27874133 4294901760
11.855786 -6.0277987 3.0705819 4294901760
5.4950628 -2.7950437 -0.10761154 4294901760
11.73718 -5.9726529 3.528739 4294901760
2.5758576 -1.3147309 -0.77490425 4294901760
6.5236154 -3.3311222 0.12785633 4294901760
2.8026919 -1.4317417 -0.72659194 4294901760
8.0173054 -4.0973668 0.47186103 4294901760
3.0523262 -1.5599381 -0.66630507 4294901760
10.461085 -5.3486009 1.0279148 4294901760
3.3537698 -1.7154722 -0.59664112 4294901760
12.099709 -6.1917329 1.6688789 4294901760
3.724829 -1.9069117 -0.51380116 4294901760
12.033063 -6.16293 2.1412752 4294901760
4.1673346 -2.1343687 -0.409632 4294901760
11.921458 -6.108397 2.6037798 4294901760
4.7277513 -2.4234788 -0.2784273 4294901760
11.848545 -6.0762606 3.0741811 4294901760
5.4817142 -2.8123822 -0.10754173 4294901760
11.723134 -6.0171151 3.5308094 4294901760
2.5729702 -1.3245986 -0.77542186 4294901760
6.5066147 -3.3511267 0.12775162 4294901760
2.7942123 -1.439731 -0.72569209 4294901760
8.0136061 -4.1308179 0.47248909 4294901760
3.0503523 -1.5723821 -0.66706824 4294901760
10.484851 -5.407001 1.0320983 4294901760
3.3407393 -1.7235457 -0.59538966 4294901760
20.927944 -10.801718 2.891716 4294901760
3.7287328 -1.9253668 -0.51526362 4294901760
12.018497 -6.2085233 2.1425269 4294901760
4.1633987 -2.1507311 -0.4099806 4294901760
11.879133 -6.1391568 2.5992002 4294901760
4.7103915 -2.4353807 -0.27790397 4294901760
11.842842 -6.1256399 3.0782304 4294901760
5.4789672 -2.8351758 -0.10768134 4294901760
11.702059 -6.0580001 3.5308094 4294901760
2.5734744 -1.3362426 -0.7769748 4294901760
6.5055246 -3.3793495 0.12796104 4294901760
2.7839823 -1.44678 -0.72434241 4294901760
7.984961 -4.1513948 0.47165167 4294901760
3.0413616 -1.5812091 -0.66630507 4294901760
10.444703 -5.4325347 1.0300065 4294901760
3.341712 -1.738844 -0.59664112 4294901760
20.92885 -10.89487 2.8970783 4294901760
3.7043831 -1.9292017 -0.51282626 4294901760
11.97573 -6.2394843 2.1387722 4294901760
4.1664677 -2.1707745 -0.41102645 4294901760
11.878523 -6.1914749 2.6037798 4294901760
4.7054043 -2.453655 -0.27811331 4294901760
11.80411 -6.1579289 3.0737312 4294901760
5.4690375 -2.8542838 -0.10768134 4294901760
11.69283 -6.1050706 3.5344331 4294901760
2.572217 -1.3470099 -0.77801007 4294901760
6.5025458 -3.4066775 0.12813558 4294901760
2.7840931 -1.459203 -0.72569209 4294901760
7.9739594 -4.1810975 0.47186103 4294901760
3.0358236 -1.5918158 -0.66630507 4294901760
10.446848 -5.4800673 1.0320983 4294901760
3.3303745 -1.7477442 -0.59570253 4294901760
20.880146 -10.962322 2.8956158 4294901760
3.7011418 -1.9439669 -0.51331371 4294901760
11.950378 -6.2794113 2.1381464 4294901760
4.158865 -2.1853049 -0.41102645 4294901760
11.877692 -6.2438631 2.6083591 4294901760
4.6968107 -2.4700651 -0.27811331 4294901760
11.763572 -6.1891141 3.0687821 4294901760
5.4625797 -2.8752198 -0.10775116 4294901760
11.686831 -6.1539488 3.5390918 4294901760
2.55725 -1.3505673 -0.77490425 4294901760
6.4870782 -3.4274862 0.12806576 4294901760
2.7841511 -1.4716444 -0.72704178 4294901760
7.9663782 -4.2126412 0.4722797 4294901760
3.0233064 -1.5987322 -0.66477859 4294901760
10.455832 -5.5314059 1.0348873 4294901760
3.3347292 -1.7649029 -0.59757972 4294901760
20.848772 -11.038857 2.8965909 4294901760
3.6995959 -1.9596621 -0.51404494 4294901760
11.928387 -6.3210874 2.1381464 4294901760
4.1371279 -2.1923456 -0.409632 4294901760
11.845416 -6.2797685 2.6060696 4294901760
4.700511 -2.4929955 -0.278846 4294901760
11.753947 -6.2365327 3.0719316 4294901760
5.4348478 -2.8848946 -0.10740211 4294901760
11.644805 -6.1838331 3.5328801 4294901760
2.5456996 -1.355853 -0.7728337 4294901760
6.4521327 -3.437885 0.12761199 4294901760
2.7807169 -1.4822707 -0.72749174 4294901760
7.9692488 -4.2498217 0.47332644 4294901760
3.021172 -1.6111233 -0.66554183 4294901760
10.429429 -5.5641189 1.0341899 4294901760
3.3111212 -1.7672315 -0.59445107 4294901760
20.839882 -11.12746 2.9007344 4294901760
3.692733 -1.972564 -0.51404494 4294901760
11.895797 -6.357101 2.1362693 4294901760
4.1259356 -2.2048953 -0.40928334 4294901760
4.6900191 -2.508446 -0.27874133 4294901760
11.73726 -6.280282 3.0732813 4294901760
5.438848 -2.9113977 -0.10768134 4294901760
11.62996 -6.2280922 3.5349507 4294901760
2.5511627 -1.3702154 -0.77593952 4294901760
6.454185 -3.4679587 0.12789124 4294901760
2.7669437 -1.4873549 -0.7252422 4294901760
7.9402928 -4.2700458 0.47248909 4294901760
3.0189879 -1.6235189 -0.66630507 4294901760
10.385379 -5.587275 1.0317496 4294901760
3.3084111 -1.780651 -0.5950768 4294901760
11.67375 -6.2856665 1.6279309 4294901760
3.687572 -1.9863833 -0.51428866 4294901760
11.605735 -6.254271 2.0880876 4294901760
4.128737 -2.2249553 -0.41032922 4294901760
11.526518 -6.2141771 2.5453923 4294901760
4.667171 -2.5172174 -0.27790397 4294901760
11.435719 -6.1703782 2.9999473 4294901760
5.4392109 -2.9360647 -0.10789078 4294901760
11.609849 -6.269568 3.5354683 4294901760
2.5463643 -1.3791122 -0.77593952 4294901760
6.4508305 -3.4952295 0.12806576 4294901760
2.761735 -1.4970043 -0.7252422 4294901760
7.9253392 -4.2977366 0.47248909 4294901760
3.0081246 -1.6312397 -0.66516018 4294901760
10.379823 -5.6310935 1.0331441 4294901760
3.3091202 -1.7959578 -0.59632826 4294901760
10.85623 -5.8944526 1.516786 4294901760
3.6753829 -1.9964008 -0.51355743 4294901760
10.811462 -5.8750319 1.9488608 4294901760
4.1279478 -2.2431586 -0.41102645 4294901760
10.794117 -5.8680468 2.3881655 4294901760
4.660111 -2.5344477 -0.27800864 4294901760
10.736248 -5.8414435 2.8217859 4294901760
10.866639 -5.9148464 -0.21595608 4294901760
11.608253 -6.3211422 3.5416801 4294901760
2.5449259 -1.3898443 -0.7769748 4294901760
6.4543848 -3.5263553 0.12837991 4294901760
2.7599125 -1.5085046 -0.72614199 4294901760
10.698341 -5.8498921 0.63902211 4294901760
3.0041349 -1.6426719 -0.66554183 4294901760
10.402055 -5.6902409 1.0373276 4294901760
3.3166935 -1.8150841 -0.59883118 4294901760
3.666651 -2.0082648 -0.51331371 4294901760
4.1200924 -2.2575543 -0.41102645 4294901760
10.396545 -5.6990194 2.3045912 4294901760
4.6529865 -2.5516591 -0.27811331 4294901760
10.315999 -5.6595511 2.7165089 4294901760
5.4150748 -2.9720414 -0.10782097 4294901760
11.586117 -6.3616242 3.5416801 4294901760
2.5332899 -1.3949919 -0.77490425 4294901760
6.4420366 -3.5488636 0.12837991 4294901760
2.7597504 -1.520951 -0.72749174 4294901760
10.6901 -5.8939505 0.63975483 4294901760
2.9949443 -1.6512525 -0.66477859 4294901760
10.666499 -5.8833671 1.0657405 4294901760
3.3103373 -1.8266506 -0.59883118 4294901760
10.522851 -5.8089256 1.4758378 4294901760
3.6630936 -2.0229704 -0.51380116 4294901760
10.448583 -5.7726874 1.8906672 4294901760
4.0982361 -2.2642148 -0.409632 4294901760
10.388616 -5.7419233 2.3072627 4294901760
4.6545382 -2.5736845 -0.27874133 4294901760
10.304707 -5.700242 2.7187583 4294901760
5.4046679 -2.9909253 -0.10782097 4294901760
2.5216491 -1.4000751 -0.7728337 4294901760
5.6779146 -3.1538 0.11337084 4294901760
2.7578311 -1.5324682 -0.72839153 4294901760
5.6559319 -3.1441734 0.33913705 4294901760
2.9977419 -1.6664664 -0.66668665 4294901760
5.5893574 -3.1084411 0.55953985 4294901760
3.2935841 -1.8324326 -0.59695399 4294901760
10.500776 -5.8446565 1.4755942 4294901760
3.6542754 -2.0347791 -0.51355743 4294901760
10.423191 -5.8062401 1.8897287 4294901760
4.0885668 -2.2775369 -0.40945768 4294901760
10.35479 -5.770505 2.3042095 4294901760
4.6455264 -2.589916 -0.27874133 4294901760
10.286448 -5.7371273 2.7192082 4294901760
5.5164323 -3.0779777 -0.11026431 4294901760
11.452021 -6.3924508 3.5142453 4294901760
2.5268607 -1.4145306 -0.77593952 4294901760
2.7456646 -1.5382757 -0.72659194 4294901760
2.9884813 -1.6750004 -0.66592342 4294901760
3.2906132 -1.8458508 -0.59757972 4294901760
10.476849 -5.879333 1.4751067 4294901760
3.6506131 -2.0494661 -0.51404494 4294901760
10.416639 -5.8503275 1.8922316 4294901760
4.085803 -2.2947216 -0.4099806 4294901760
10.331161 -5.8046923 2.3034463 4294901760
4.6329751 -2.6041591 -0.27853197 4294901760
10.271456 -5.7758641 2.7205582 4294901760
5.4429121 -3.0619187 -0.10900773 4294901760
11.269699 -6.3423762 3.4650695 4294901760
2.5252726 -1.4252415 -0.7769748 4294901760
5.3579955 -3.0252388 0.10740211 4294901760
2.7334912 -1.5440166 -0.7247923 4294901760
5.3178988 -3.0038233 0.32008675 4294901760
2.9928713 -1.6912171 -0.66821313 4294901760
5.2952151 -2.9934487 0.53217298 4294901760
3.2858694 -1.8582985 -0.59789258 4294901760
10.466627 -5.9217329 1.4765691 4294901760
3.6420681 -2.0605831 -0.51380116 4294901760
10.40062 -5.8867841 1.8928572 4294901760
4.0812359 -2.3109331 -0.41032922 4294901760
10.315961 -5.8436222 2.3045912 4294901760
4.6273322 -2.6222844 -0.27874133 4294901760
10.242074 -5.8041286 2.7178588 4294901760
5.3857594 -3.0533235 -0.1080653 4294901760
10.989823 -6.232944 3.3853533 4294901760
2.5272493 -1.4374282 -0.7790454 4294901760
5.365314 -3.0528791 0.10775116 4294901760
2.7317431 -1.5550008 -0.72569209 4294901760
5.3131161 -3.0244057 0.32040074 4294901760
2.9718928 -1.6923891 -0.66477859 4294901760
5.2869902 -3.0119781 0.53234726 4294901760
3.2796891 -1.8691846 -0.59789258 4294901760
10.460729 -5.9642744 1.4785191 4294901760
3.6300418 -2.0696995 -0.51306999 4294901760
10.377609 -5.9192834 1.8922316 4294901760
4.080472 -2.3284037 -0.41102645 4294901760
10.301641 -5.8807192 2.3057361 4294901760
4.6220798 -2.6395962 -0.27895069 4294901760
10.229538 -5.8419266 2.7196581 4294901760
5.386023 -3.0771186 -0.10827474 4294901760
10.942257 -6.254015 3.3770709 4294901760
2.5090604 -1.4381156 -0.77490425 4294901760
2.7384043 -1.5708387 -0.72884142 4294901760
2.9727774 -1.7066623 -0.66630507 4294901760
3.2751853 -1.8810338 -0.59820545 4294901760
10.444336 -6.0009084 1.4790065 4294901760
3.633121 -2.0882938 -0.51453239 4294901760
10.360309 -5.9574418 1.8928572 4294901760
4.0705924 -2.3416398 -0.41085216 4294901760
10.29126 -5.9225178 2.3080258 4294901760
4.619761 -2.6596999 -0.27936935 4294901760
10.212461 -5.8795428 2.7205582 4294901760
5.3648515 -3.0899119 -0.1080653 4294901760
10.881862 -6.2699904 3.3651655 4294901760
2.5004275 -1.4453686 -0.77386898 4294901760
10.660045 -6.164506 0.21494384 4294901760
2.7275681 -1.5779374 -0.72749174 4294901760
10.593047 -6.1306982 0.64142954 4294901760
2.9665022 -1.7175467 -0.66630507 4294901760
3.2682688 -1.8930254 -0.59820545 4294901760
10.429141 -6.0431299 1.4799815 4294901760
3.625443 -2.1015956 -0.51453239 4294901760
10.341823 -5.9973564 1.893483 4294901760
4.0568123 -2.3535442 -0.41032922 4294901760
10.259295 -5.9542847 2.3057361 4294901760
4.6168909 -2.6806259 -0.27978805 4294901760
10.194215 -5.9188914 2.721458 4294901760
5.3483028 -3.1065414 -0.10796059 4294901760
10.848785 -6.304009 3.3620596 4294901760
2.498451 -1.4564692 -0.77490425 4294901760
10.635651 -6.2025285 0.21490893 4294901760
2.7184 -1.5859598 -0.72659194 4294901760
10.576759 -6.1706572 0.6417436 4294901760
2.9638801 -1.7298704 -0.66706824 4294901760
10.30106 -6.0146294 1.0436028 4294901760
3.2561917 -1.9020026 -0.59726685 4294901760
10.400066 -6.0773082 1.4790065 4294901760
3.6180849 -2.114238 -0.51453239 4294901760
10.327645 -6.0374069 1.8947345 4294901760
4.0537319 -2.370708 -0.41085216 4294901760
10.241838 -5.992043 2.3064992 4294901760
4.5902681 -2.6866369 -0.27874133 4294901760
10.18022 -5.9583778 2.7232575 4294901760
5.3357015 -3.1241813 -0.10792568 4294901760
10.80171 -6.3271928 3.354295 4294901760
2.5002704 -1.4686601 -0.7769748 4294901760
6.3514295 -3.7323244 0.12858933 4294901760
2.7064056 -1.5910151 -0.7247923 4294901760
2.9615121 -1.7416801 -0.66783154 4294901760
5.2736135 -3.1026778 0.53531057 4294901760
3.251569 -1.9137919 -0.59757972 4294901760
10.383278 -6.1137767 1.479494 4294901760
3.6093433 -2.125217 -0.51428866 4294901760
10.314376 -6.0756326 1.895986 4294901760
4.0527139 -2.3881838 -0.41154939 4294901760
10.220219 -6.0249753 2.3061175 4294901760
4.5847745 -2.7038732 -0.27895069 4294901760
10.163761 -5.9940829 2.7241573 4294901760
5.3390899 -3.1499867 -0.10820492 4294901760
10.792315 -6.3698516 3.3579185 4294901760
2.4987113 -1.478911 -0.77801007 4294901760
6.3441796 -3.7564225 0.12869404 4294901760
2.7078216 -1.6039538 -0.72659194 4294901760
5.2870154 -3.1329627 0.32207552 4294901760
2.9506531 -1.7484885 -0.66668665 4294901760
5.2632961 -3.1201482 0.53531057 4294901760
3.255399 -1.9306099 -0.59945697 4294901760
10.369776 -6.1522264 1.4804689 4294901760
3.6001964 -2.1367903 -0.51404494 4294901760
10.029833 -5.9552794 1.8474913 4294901760
4.0430589 -2.4005928 -0.41137511 4294901760
10.232254 -6.0778837 2.3133683 4294901760
4.5878024 -2.7262037 -0.27968338 4294901760
10.136076 -6.0255418 2.7223575 4294901760
5.314312 -3.1604278 -0.10792568 4294901760
10.765033 -6.4045219 3.3563654 4294901760
2.4868975 -1.4836652 -0.77593952 4294901760
6.3378968 -3.7826438 0.12883367 4294901760
2.7055526 -1.6153942 -0.72749174 4294901760
5.2880497 -3.1585677 0.32280821 4294901760
2.9411609 -1.7567642 -0.66592342 4294901760
5.2506623 -3.1374798 0.53513628 4294901760
3.245249 -1.9399345 -0.59883118 4294901760
10.34994 -6.1894054 1.4807127 4294901760
3.5944188 -2.150363 -0.51428866 4294901760
9.961524 -5.9618497 1.8387309 4294901760
4.0243974 -2.4085522 -0.41032922 4294901760
10.172235 -6.0903692 2.3045912 4294901760
4.5816846 -2.7442541 -0.27989271 4294901760
10.106623 -6.0558786 2.7201083 4294901760
5.3101082 -3.1830709 -0.1080653 4294901760
10.732671 -6.4360986 3.3532596 4294901760
2.4817035 -1.4923371 -0.77593952 4294901760
6.3075194 -3.7944365 0.12848462 4294901760
2.7065761 -1.6288478 -0.72929132 4294901760
5.2941027 -3.187309 0.32385492 4294901760
2.9417384 -1.7710705 -0.66744989 4294901760
5.2430916 -3.1578448 0.53548485 4294901760
3.2350736 -1.9492116 -0.59820545 4294901760
10.329972 -6.2265205 1.4809563 4294901760
3.5902903 -2.164947 -0.51477611 4294901760
9.9508018 -6.002707 1.8406081 4294901760
4.0279074 -2.4297891 -0.41154939 4294901760
10.191255 -6.1501842 2.31375 4294901760
4.5686579 -2.7581661 -0.27968338 4294901760
10.130462 -6.1183214 2.7322555 4294901760
5.3023877 -3.2036555 -0.1081351 4294901760
10.710139 -6.4735227 3.3532596 4294901760
2.4797833 -1.5029936 -0.7769748 4294901760
5.8359756 -3.5385699 0.11913013 4294901760
2.690877 -1.6322217 -0.72659194 4294901760
5.2846518 -3.2068055 0.32395959 4294901760
2.9355383 -1.7813283 -0.66744989 4294901760
5.2320366 -3.1761272 0.53548485 4294901760
3.2248731 -1.9584416 -0.59757972 4294901760
3.5844083 -2.1784976 -0.51501989 4294901760
9.3812275 -5.7038751 1.7389257 4294901760
4.0211039 -2.4448693 -0.41172373 4294901760
9.1465454 -5.5633736 2.0809629 4294901760
4.5538836 -2.7709825 -0.27936935 4294901760
5.3014202 -3.2283852 -0.10834454 4294901760
10.689128 -6.5118742 3.3537772 4294901760
2.4745219 -1.5116404 -0.7769748 4294901760
2.6818376 -1.6395715 -0.72569209 4294901760
5.2614989 -3.2179382 0.3232269 4294901760
2.932652 -1.7936128 -0.66821313 4294901760
5.2311158 -3.2006102 0.53653073 4294901760
3.2247565 -1.9738115 -0.59883118 4294901760
10.29133 -6.3015947 1.4816877 4294901760
3.5733962 -2.1889222 -0.51453239 4294901760
9.3814707 -5.7489724 1.7426801 4294901760
4.0206089 -2.4647973 -0.41259527 4294901760
8.6785002 -5.3202753 1.9786894 4294901760
4.5509939 -2.791038 -0.27978805 4294901760
5.2918234 -3.2479174 -0.10837945 4294901760
2.4755442 -1.5247523 -0.7790454 4294901760
5.8060217 -3.5760801 0.11902541 4294901760
2.6827345 -1.6530122 -0.72749174 4294901760
5.2502341 -3.236285 0.3232269 4294901760
2.9160321 -1.798167 -0.66592342 4294901760
5.2312193 -3.2270842 0.5377509 4294901760
3.2158194 -1.9845802 -0.59851831 4294901760
3.5640447 -2.2003393 -0.51428866 4294901760
8.7042027 -5.3758249 1.6203485 4294901760
4.0221505 -2.485101 -0.41364115 4294901760
4.5509257 -2.8140018 -0.28041607 4294901760
9.7564926 -6.0351458 2.6485736 4294901760
5.2787528 -3.2653172 -0.10834454 4294901760
8.5866776 -5.3135972 2.7056944 4294901760
2.4603586 -1.5272712 -0.77593952 4294901760
5.7979722 -3.6005011 0.11913013 4294901760
2.683279 -1.666947 -0.72929132 4294901760
5.2485161 -3.2618318 0.32385492 4294901760
2.9164076 -1.81248 -0.66744989 4294901760
5.2165389 -3.2432208 0.53740233 4294901760
3.2172594 -2.0010099 -0.6000827 4294901760
5.8603806 -3.6463466 0.84747952 4294901760
3.5610123 -2.2165349 -0.51501989 4294901760
8.4882488 -5.2855248 1.5837427 4294901760
3.9948473 -2.4875405 -0.41172373 4294901760
8.4169121 -5.2431436 1.9275526 4294901760
4.5410752 -2.8298702 -0.28041607 4294901760
8.3264093 -5.1908021 2.2652571 4294901760
5.2667494 -3.2846427 -0.10834454 4294901760
8.2999849 -5.1783524 2.6213193 4294901760
2.4550126 -1.5358499 -0.77593952 4294901760
5.770113 -3.6111703 0.11881598 4294901760
2.6807473 -1.6783715 -0.73019111 4294901760
5.2370982 -3.2801323 0.32385492 4294901760
2.9083991 -1.8216069 -0.66706824 4294901760
5.2051864 -3.2614105 0.53740233 4294901760
3.2002125 -2.005933 -0.59820545 4294901760
5.8627524 -3.6762719 0.84967309 4294901760
3.5599799 -2.2331707 -0.51599485 4294901760
8.5216169 -5.3476729 1.5934417 4294901760
3.9861395 -2.5014703 -0.41172373 4294901760
8.5931005 -5.3946223 1.9722018 4294901760
4.5328608 -2.8467669 -0.28052074 4294901760
8.7339649 -5.4873056 2.3813319 4294901760
5.2586379 -3.3051355 -0.10841435 4294901760
8.2556906 -5.1908402 2.6130373 4294901760
2.4529049 -1.5464709 -0.7769748 4294901760
5.8099055 -3.6643596 0.11989804 4294901760
2.6616879 -1.6794 -0.72659194 4294901760
5.2289939 -3.3005254 0.32406428 4294901760
2.9053433 -1.8338439 -0.66783154 4294901760
5.1971388 -3.2816873 0.5377509 4294901760
3.1915212 -2.016037 -0.59789258 4294901760
5.8582749 -3.7020164 0.85089183 4294901760
3.5521629 -2.2455838 -0.51599485 4294901760
8.5145845 -5.3847766 1.5956318 4294901760
3.9841192 -2.5196288 -0.41242099 4294901760
8.3834209 -5.3038764 1.9283159 4294901760
4.5212088 -2.8615036 -0.28041607 4294901760
8.485898 -5.3728576 2.3187954 4294901760
5.257205 -3.3298919 -0.10862378 4294901760
8.2473116 -5.225831 2.616143 4294901760
2.4605362 -1.5633117 -0.78111589 4294901760
5.8949628 -3.7468321 0.12192252 4294901760
2.654165 -1.6876351 -0.72614199 4294901760
5.2208114 -3.3209019 0.32427362 4294901760
2.9038937 -1.8471354 -0.66897637 4294901760
5.1957378 -3.3062265 0.53879678 4294901760
3.1844645 -2.0271649 -0.59789258 4294901760
5.8436427 -3.7213769 0.85064811 4294901760
3.5376058 -2.2537036 -0.51501989 4294901760
8.5057316 -5.4208355 1.597509 4294901760
3.9803407 -2.5367334 -0.41294393 4294901760
8.3565788 -5.3278294 1.9264078 4294901760
4.5095091 -2.8761945 -0.28031141 4294901760
8.3865929 -5.3510842 2.2967501 4294901760
5.2522917 -3.3525262 -0.1087634 4294901760
8.2273932 -5.2535472 2.6156254 4294901760
2.4485567 -1.5677245 -0.7790454 4294901760
5.9525714 -3.812686 0.12338851 4294901760
2.6597433 -1.7042489 -0.72929132 4294901760
5.2024617 -3.3347945 0.32385492 4294901760
2.8908167 -1.8530228 -0.66744989 4294901760
5.1808109 -3.3221917 0.53844815 4294901760
3.1873446 -2.0446682 -0.59976977 4294901760
5.8423114 -3.7492573 0.85235429 4294901760
3.5330579 -2.268183 -0.51550734 4294901760
8.4751225 -5.4430208 1.5953189 4294901760
3.9697847 -2.549535 -0.41276959 4294901760
8.3461895 -5.3622732 1.9283159 4294901760
4.5044818 -2.8951581 -0.28062543 4294901760
8.2957411 -5.3339534 2.2769547 4294901760
5.2371936 -3.3686757 -0.10869358 4294901760
8.2171268 -5.2874613 2.6182134 4294901760
2.4398227 -1.574167 -0.77801007 4294901760
5.9022636 -3.8095841 0.12262061 4294901760
2.6537781 -1.7135229 -0.72929132 4294901760
5.1941452 -3.3551013 0.32406428 4294901760
2.8826818 -1.8620369 -0.66706824 4294901760
5.1691833 -3.3402562 0.53844815 4294901760
3.1801879 -2.0557816 -0.59976977 4294901760
5.8441906 -3.77933 0.85454792 4294901760
3.5251191 -2.2805014 -0.51550734 4294901760
8.4776297 -5.4865236 1.5993862 4294901760
3.9608612 -2.5633767 -0.41276959 4294901760
8.3587322 -5.4116459 1.9355664 4294901760
4.5010538 -2.9152069 -0.28104413 4294901760
8.2639885 -5.3544011 2.2733555 4294901760
5.2254028 -3.3869369 -0.10869358 4294901760
8.1791687 -5.3034992 2.6120019 4294901760
2.4343128 -1.582674 -0.77801007 4294901760
5.6022778 -3.6437254 0.11665189 4294901760
2.6494143 -1.7238387 -0.72974122 4294901760
5.1896868 -3.3766644 0.32448295 4294901760
2.8811007 -1.8753009 -0.66821313 4294901760
5.1541524 -3.3561053 0.53809953 4294901760
3.1680269 -2.0636353 -0.59883118 4294901760
5.8243098 -3.7953713 0.85357296 4294901760
3.5254521 -2.2982132 -0.51672608 4294901760
8.4610453 -5.5156856 1.599699 4294901760
3.9452133 -2.5728338 -0.41207233 4294901760
8.3200607 -5.4279184 1.9309872 4294901760
4.4958687 -2.9341753 -0.28135812 4294901760
8.2485104 -5.3853455 2.2742553 4294901760
5.2275381 -3.4129918 -0.10897283 4294901760
8.1663895 -5.3337631 2.613555 4294901760
2.4352376 -1.5953965 -0.78008062 4294901760
5.6370001 -3.6929662 0.11762922 4294901760
2.6339037 -1.7262056 -0.72704178 4294901760
5.1878905 -3.40133 0.325111 4294901760
2.8843873 -1.8918068 -0.67050284 4294901760
5.1490688 -3.3784482 0.53879678 4294901760
3.1611662 -2.0741296 -0.59883118 4294901760
5.8116918 -3.8146641 0.85357296 4294901760
3.5128336 -2.3066227 -0.51599485 4294901760
8.3113079 -5.4595084 1.5749824 4294901760
3.9461994 -2.5931542 -0.41311821 4294901760
8.3020153 -5.4554787 1.9309872 4294901760
4.4777684 -2.9435818 -0.28083476 4294901760
8.2289782 -5.4115982 2.2738054 4294901760
5.2189341 -3.4334168 -0.10904264 4294901760
8.165473 -5.373919 2.6192489 4294901760
2.4331582 -1.6055912 -0.78111589 4294901760
5.6991739 -3.7621956 0.11919994 4294901760
2.6278622 -1.7353892 -0.72704178 4294901760
5.1699162 -3.4141123 0.32469231 4294901760
2.8682692 -1.8948685 -0.66821313 4294901760
5.144486 -3.3998985 0.53949404 4294901760
3.1621463 -2.0905986 -0.60039556 4294901760
5.7983408 -3.834928 0.85357296 4294901760
3.4981387 -2.3144894 -0.51501989 4294901760
8.2585611 -5.4641495 1.5684121 4294901760
3.9359169 -2.6051266 -0.41294393 4294901760
8.5153675 -5.6383352 1.9851768 4294901760
4.4691315 -2.9602976 -0.28093943 4294901760
8.224658 -5.4499774 2.2778544 4294901760
5.2108531 -3.4529135 -0.10911245 4294901760
8.1604881 -5.4095063 2.62339 4294901760
2.4275389 -1.6140746 -0.78111589 4294901760
5.6833363 -3.7788594 0.11913013 4294901760
2.6269605 -1.7473319 -0.72839153 4294901760
5.1579671 -3.432138 0.32469231 4294901760
2.8649061 -1.907045 -0.66897637 4294901760
5.1359038 -3.4200439 0.53984267 4294901760
3.1551962 -2.1010733 -0.60039556 4294901760
5.7888961 -3.8563361 0.85406041 4294901760
3.4937472 -2.3282783 -0.51550734 4294901760
7.8992095 -5.2661266 1.5036483 4294901760
3.9384024 -2.6265879 -0.4141641 4294901760
8.5080557 -5.6741676 1.9878482 4294901760
4.4626131 -2.9773185 -0.28114879 4294901760
8.2195072 -5.4858756 2.2814536 4294901760
5.1954427 -3.4688606 -0.10904264 4294901760
8.1528015 -5.4454694 2.6270134 4294901760
2.4074452 -1.6128613 -0.77645719 4294901760
5.6412082 -3.7807388 0.11853675 4294901760
2.6253946 -1.7602041 -0.72974122 4294901760
5.1486702 -3.4532444 0.32490164 4294901760
2.8517101 -1.9126593 -0.66744989 4294901760
5.1173167 -3.4335105 0.53914541 4294901760
3.1441936 -2.1104217 -0.59976977 4294901760
5.7813148 -3.8819542 0.85503536 4294901760
3.4934301 -2.3466024 -0.51672608 4294901760
8.2323675 -5.5319209 1.5709151 4294901760
3.9209414 -2.634763 -0.41329253 4294901760
8.472538 -5.695456 1.9844136 4294901760
4.4566431 -2.9969983 -0.28146279 4294901760
8.7022047 -5.8542547 2.4213731 4294901760
5.1893296 -3.4923458 -0.10918226 4294901760
8.11516 -5.4634471 2.6213193 4294901760
2.4050033 -1.6234169 -0.77749246 4294901760
5.6080894 -3.7869782 0.11811788 4294901760
2.6192343 -1.7693577 -0.72974122 4294901760
5.1465139 -3.4779055 0.32552966 4294901760
2.8547761 -1.9291975 -0.6697396 4294901760
5.1069508 -3.4524682 0.53931969 4294901760
3.1351717 -2.1202774 -0.59945697 4294901760
5.7693734 -3.9032228 0.85527909 4294901760
3.4885056 -2.3610079 -0.51721358 4294901760
8.2637138 -5.5949545 1.580614 4294901760
3.9117203 -2.6484337 -0.41329253 4294901760
4.4478073 -3.0136566 -0.28156745 4294901760
8.181654 -5.5456467 2.2819035 4294901760
5.1837277 -3.5149276 -0.10932188 4294901760
8.0976381 -5.4928246 2.6218369 4294901760
2.4057112 -1.6361475 -0.77956301 4294901760
5.56673 -3.7874081 0.1175245 4294901760
2.6130424 -1.7784897 -0.72974122 4294901760
5.1392951 -3.4992216 0.32584369 4294901760
2.8512702 -1.9413608 -0.67050284 4294901760
5.1047482 -3.4770031 0.54036558 4294901760
3.1293838 -2.1323206 -0.59976977 4294901760
5.7491527 -3.9188659 0.85430413 4294901760
3.4786026 -2.3720524 -0.5169698 4294901760
8.2082338 -5.599277 1.5737309 4294901760
3.9069242 -2.666122 -0.41381544 4294901760
8.2558107 -5.6338429 1.9428172 4294901760
4.4389105 -3.0302906 -0.28167215 4294901760
8.3199549 -5.6818743 2.3259938 4294901760
5.181334 -3.5397692 -0.10953131 4294901760
8.1135044 -5.5450382 2.6332252 4294901760
2.3996983 -1.6449538 -0.77956301 4294901760
5.5567751 -3.809078 0.11759432 4294901760
2.6003895 -1.7831916 -0.72794157 4294901760
5.123755 -3.5148802 0.32563433 4294901760
2.8441355 -1.951798 -0.67050284 4294901760
5.0903277 -3.4945621 0.54019129 4294901760
3.129689 -2.1493676 -0.60133415 4294901760
5.7305288 -3.935539 0.85357296 4294901760
3.4703016 -2.3841803 -0.5169698 4294901760
8.0942154 -5.5630007 1.5555844 4294901760
3.897594 -2.6797435 -0.41381544 4294901760
8.0393782 -5.5294447 1.8966415 4294901760
4.4244833 -3.044275 -0.28146279 4294901760
8.0502634 -5.5410709 2.2562592 4294901760
5.1788292 -3.5646365 -0.10974073 4294901760
8.0256805 -5.5262156 2.6109667 4294901760
2.4003003 -1.6577119 -0.78163356 4294901760
5.5559382 -3.8385124 0.11787355 4294901760
2.5986457 -1.7960343 -0.72929132 4294901760
5.1081691 -3.5304725 0.32542503 4294901760
2.8340755 -1.9594811 -0.6697396 4294901760
5.0895691 -3.5202434 0.54141146 4294901760
3.1270406 -2.163651 -0.60227275 4294901760
5.7193308 -3.9587758 0.85406041 4294901760
3.4631717 -2.3980138 -0.51721358 4294901760
7.9545689 -5.5080051 1.5324322 4294901760
3.8996806 -2.7012742 -0.41503564 4294901760
7.8651142 -5.4501252 1.8600061 4294901760
4.4220371 -3.0653903 -0.28198618 4294901760
7.8883495 -5.4703035 2.2162178 4294901760
5.1712842 -3.5861106 -0.10984544 4294901760
7.9269767 -5.4991398 2.5850849 4294901760
2.3913276 -1.6638734 -0.78059822 4294901760
5.7188144 -3.9791214 0.12160837 4294901760
2.5990734 -1.8090953 -0.73109096 4294901760
5.099092 -3.5505643 0.32563433 4294901760
2.8304403 -1.9716064 -0.67050284 4294901760
5.0707116 -3.5334313 0.5407142 4294901760
3.1166072 -2.1717498 -0.60164702 4294901760
5.7077999 -3.9788551 0.85430413 4294901760
3.4519439 -2.4072139 -0.51672608 4294901760
7.7749033 -5.4238477 1.5014582 4294901760
3.8836925 -2.710309 -0.41433838 4294901760
7.7391291 -5.4008994 1.8344377 4294901760
4.4200358 -3.0857537 -0.28250951 4294901760
7.7583294 -5.4183269 2.1847248 4294901760
5.1636524 -3.6075761 -0.10995016 4294901760
7.6417131 -5.3408532 2.4981215 4294901760
2.3763044 -1.6651428 -0.77749246 4294901760
5.8440733 -4.0966258 0.12457528 4294901760
2.5927424 -1.8181567 -0.73109096 4294901760
5.0997477 -3.577518 0.32647175 4294901760
2.827101 -1.9832364 -0.67126608 4294901760
5.0622282 -3.5525157 0.54106283 4294901760
3.1057739 -2.180346 -0.60102129 4294901760
6.4931312 -4.5600634 0.97422361 4294901760
3.4532659 -2.4260957 -0.51818854 4294901760
6.4322934 -4.5206909 1.2452185 4294901760
3.8725784 -2.7227035 -0.4141641 4294901760
6.4000654 -4.4997101 1.5207478 4294901760
4.415772 -3.1057599 -0.2829282 4294901760
7.5863657 -5.3377242 2.1415341 4294901760
5.1297703 -3.6106155 -0.1094964 4294901760
7.4666457 -5.2573867 2.4468753 4294901760
2.3733413 -1.6760697 -0.77852774 4294901760
5.9979815 -4.2358155 0.12817048 4294901760
2.5831969 -1.824947 -0.73019111 4294901760
5.0970154 -3.6022141 0.32709977 4294901760
2.816607 -1.9913181 -0.67050284 4294901760
5.0556798 -3.5756483 0.54176009 4294901760
3.0945365 -2.1894326 -0.60039556 4294901760
3.4480169 -2.4404285 -0.51867592 4294901760
6.4245348 -4.5488238 1.2467828 4294901760
3.8679285 -2.7396593 -0.41468704 4294901760
4.3880649 -3.1103737 -0.28188148 4294901760
5.1269231 -3.6354401 -0.10970583 4294901760
2.3769209 -1.6910638 -0.78163356 4294901760
5.9856749 -4.2600899 0.12824029 4294901760
2.5780783 -1.835533 -0.73064101 4294901760
5.074017 -3.6139193 0.32647175 4294901760
2.8128371 -2.0034158 -0.67126608 4294901760
5.0464129 -3.5955863 0.54210871 4294901760
3.0900924 -2.2025142 -0.60102129 4294901760
3.4309688 -2.4472861 -0.51745731 4294901760
3.8664503 -2.7589307 -0.41555858 4294901760
4.3804317 -3.1279933 -0.28209084 4294901760
5.1168184 -3.6565323 -0.10977564 4294901760
2.3741441 -1.701601 -0.78266883 4294901760
5.9756432 -4.2844534 0.128345 4294901760
2.5700717 -1.843385 -0.73019111 4294901760
5.0646167 -3.6339376 0.32668105 4294901760
2.7994461 -2.0086441 -0.6697396 4294901760
5.0370688 -3.6155028 0.54245734 4294901760
3.0855942 -2.2155914 -0.60164702 4294901760
3.424017 -2.4604061 -0.51770103 4294901760
3.8616498 -2.7758987 -0.41608149 4294901760
4.3727288 -3.1455975 -0.28230017 4294901760
5.1024003 -3.6732025 -0.10974073 4294901760
10.901394 -7.8507695 3.5996554 4294901760
2.3619249 -1.7053545 -0.78059822 4294901760
5.9655137 -4.3087988 0.12844971 4294901760
2.5683601 -1.855769 -0.7315408 4294901760
5.0583758 -3.6562743 0.32709977 4294901760
2.7987821 -2.0230041 -0.67126608 4294901760
5.0276465 -3.6353984 0.54280597 4294901760
3.0842438 -2.2309799 -0.60289848 4294901760
3.417016 -2.4735069 -0.51794475 4294901760
5.8829618 -4.260119 1.1504192 4294901760
3.843868 -2.783519 -0.41520998 4294901760
5.7634454 -4.1751056 1.3833653 4294901760
4.3778939 -3.1725619 -0.28334689 4294901760
5.0798345 -3.6839473 -0.10953131 4294901760
10.892687 -7.9023876 3.6058671 4294901760
2.3559575 -1.7135887 -0.78059822 4294901760
5.9536715 -4.3319492 0.12851952 4294901760
2.5665934 -1.8681635 -0.73289055 4294901760
5.0552697 -3.6809626 0.32772776 4294901760
2.7948775 -2.0350723 -0.67202932 4294901760
5.0197573 -3.6564453 0.54332888 4294901760
3.0716481 -2.2382424 -0.60195988 4294901760
3.4147766 -2.4900978 -0.51891971 4294901760
5.7754941 -4.2131076 1.1322728 4294901760
3.8389573 -2.8004425 -0.41573292 4294901760
5.7535939 -4.1986699 1.3845102 4294901760
4.3700199 -3.1901796 -0.28355622 4294901760
5.7473731 -4.1972055 1.6430426 4294901760
5.0863209 -3.7158117 -0.10995016 4294901760
10.865037 -7.9403615 3.6058671 4294901760
2.3468449 -1.7195185 -0.77956301 4294901760
5.9385138 -4.3527045 0.12851952 4294901760
2.5521989 -1.8713497 -0.73064101 4294901760
5.0391693 -3.6962242 0.32751846 4294901760
2.7830079 -2.0413327 -0.67088449 4294901760
5.0037503 -3.6715882 0.54298031 4294901760
3.0622239 -2.2477818 -0.60164702 4294901760
5.806571 -4.2637906 0.8845278 4294901760
3.4124632 -2.5067034 -0.51989466 4294901760
3.8339751 -2.8173647 -0.4162558 4294901760
4.3588576 -3.2054143 -0.28355622 4294901760
5.0765405 -3.7359142 -0.11001997 4294901760
2.3532634 -1.7368779 -0.7837041 4294901760
5.929719 -4.378159 0.12865914 4294901760
2.5472188 -1.8814051 -0.73109096 4294901760
5.0230231 -3.7114179 0.3273091 4294901760
2.7900763 -2.0615351 -0.67431903 4294901760
5.0037217 -3.6985059 0.54437476 4294901760
3.054359 -2.2584572 -0.60164702 4294901760
6.8018799 -5.0312891 1.0388143 4294901760
3.3925221 -2.5103345 -0.51818854 4294901760
3.8289213 -2.8342867 -0.41677874 4294901760
4.3444319 -3.2182319 -0.28334689 4294901760
5.6678286 -4.2000995 1.6286457 4294901760
5.0666814 -3.7559934 -0.11008978 4294901760
5.6296697 -4.1748662 1.8779911 4294901760
2.3533874 -1.7496923 -0.78577471 4294901760
5.9288411 -4.4095712 0.12897329 4294901760
2.5375087 -1.8879584 -0.73019111 4294901760
5.0132422 -3.7313137 0.32751846 4294901760
2.7781384 -2.0677447 -0.67317414 4294901760
4.9939771 -3.7183294 0.54472339 4294901760
3.0496254 -2.2714653 -0.60227275 4294901760
6.671258 -4.9707909 1.0215088 4294901760
3.3885136 -2.5257201 -0.51891971 4294901760
6.4769363 -4.8295183 1.2796341 4294901760
3.81581 -2.8452535 -0.41643015 4294901760
6.4457936 -4.8080473 1.5631074 4294901760
4.3395753 -3.2381554 -0.28376558 4294901760
6.4277067 -4.7980485 1.8517971 4294901760
5.0503349 -3.7712641 -0.11001997 4294901760
6.4957042 -4.8523388 2.1725271 4294901760
2.3348951 -1.7486322 -0.78163356 4294901760
5.9086113 -4.4266434 0.12886856 4294901760
2.5371408 -1.9014791 -0.73199075 4294901760
5.0081763 -3.754781 0.32804179 4294901760
2.759908 -2.0691862 -0.67050284 4294901760
4.9714036 -3.7285669 0.54367751 4294901760
3.0464182 -2.2856534 -0.60321134 4294901760
6.5506687 -4.9165936 1.005666 4294901760
3.3892014 -2.5446839 -0.52038211 4294901760
6.3652701 -4.7809176 1.260862 4294901760
3.8010759 -2.8549659 -0.4159072 4294901760
6.3081136 -4.7397094 1.5337228 4294901760
4.3298421 -3.2544837 -0.28387025 4294901760
6.3205805 -4.7525296 1.8257027 4294901760
5.0419345 -3.7924764 -0.11012468 4294901760
6.3567781 -4.7832212 2.1316338 4294901760
2.3303192 -1.7579352 -0.78215116 4294901760
5.8931236 -4.4472408 0.12886856 4294901760
2.5320432 -1.911498 -0.73244059 4294901760
5.0020742 -3.7761815 0.32846051 4294901760
2.7667685 -2.0894556 -0.67393738 4294901760
4.9583583 -3.7458973 0.54367751 4294901760
3.0352695 -2.2938912 -0.60258561 4294901760
6.4321232 -4.862812 0.99006665 4294901760
3.382328 -2.5571067 -0.52062589 4294901760
6.2548494 -4.7305055 1.2420899 4294901760
3.8006206 -2.8754294 -0.41695309 4294901760
6.2101274 -4.7000909 1.5138787 4294901760
4.326417 -3.2756062 -0.28439364 4294901760
6.2084579 -4.7005324 1.7978089 4294901760
5.0404887 -3.8176262 -0.11036902 4294901760
6.2361755 -4.7249422 2.0964344 4294901760
2.3229387 -1.7644845 -0.78163356 4294901760
5.8863049 -4.4728079 0.1290431 4294901760
2.5241392 -1.9187049 -0.73199075 4294901760
4.9958844 -3.7975829 0.32887918 4294901760
2.755136 -2.0950541 -0.67279255 4294901760
4.9554238 -3.7695565 0.54472339 4294901760
3.0260739 -2.3027475 -0.60227275 4294901760
6.3117151 -4.8047571 0.97397989 4294901760
3.3817267 -2.5743203 -0.52184457 4294901760
6.1416907 -4.677021 1.2226919 4294901760
3.789479 -2.8868093 -0.41677874 4294901760
6.0852013 -4.6373591 1.4871653 4294901760
4.3091774 -3.2850912 -0.28397492 4294901760
6.1044998 -4.6537509 1.7721643 4294901760
5.0341616 -3.8391709 -0.11050864 4294901760
6.1298532 -4.6764631 2.0658937 4294901760
2.3232124 -1.7768728 -0.7837041 4294901760
5.8857331 -4.5032387 0.12935723 4294901760
2.5162151 -1.9258802 -0.7315408 4294901760
4.9825983 -3.8149986 0.32887918 4294901760
2.7555993 -2.1106277 -0.67470068 4294901760
4.9523864 -3.7932379 0.54576921 4294901760
3.0184212 -2.3127697 -0.60227275 4294901760
6.1964898 -4.7495809 0.9586243 4294901760
3.3664191 -2.5812776 -0.52086961 4294901760
6.0375547 -4.631104 1.2051712 4294901760
3.7920249 -2.909723 -0.41817325 4294901760
5.9755359 -4.5868473 1.4642683 4294901760
4.2961001 -3.298897 -0.28387025 4294901760
5.9692049 -4.5836439 1.737522 4294901760
5.0286593 -3.8628106 -0.11068317 4294901760
6.0108604 -4.6189661 2.0312121 4294901760
2.3166845 -1.7853756 -0.7837041 4294901760
5.9483738 -4.5858278 0.13110249 4294901760
2.5122259 -1.9374697 -0.73244059 4294901760
4.9685822 -3.8332348 0.32887918 4294901760
2.7323029 -2.1087182 -0.67088449 4294901760
4.9416051 -3.8137984 0.54611784 4294901760
3.0224328 -2.3334746 -0.60477573 4294901760
6.0863461 -4.7006702 0.94424373 4294901760
3.3522229 -2.5899577 -0.52013838 4294901760
5.903317 -4.562602 1.1817061 4294901760
3.7829108 -2.9248204 -0.41834757 4294901760
5.8080482 -4.4922085 1.4272513 4294901760
4.293458 -3.3219535 -0.2844983 4294901760
5.8228989 -4.5053196 1.6997302 4294901760
5.0018167 -3.871424 -0.11040393 4294901760
5.9037685 -4.5711861 2.0006714 4294901760
2.3101251 -1.7938547 -0.7837041 4294901760
5.9757433 -4.6419473 0.13207981 4294901760
2.5081854 -1.949056 -0.73334044 4294901760
4.9623833 -3.857549 0.32940254 4294901760
2.7357755 -2.1266775 -0.67355579 4294901760
4.9275937 -3.8318846 0.54611784 4294901760
3.0123007 -2.3433237 -0.6044628 4294901760
5.9860458 -4.6583319 0.93132555 4294901760
3.3505399 -2.6083241 -0.52135712 4294901760
5.7696652 -4.4931793 1.1582409 4294901760
3.7663906 -2.933111 -0.41765031 4294901760
5.7009554 -4.4412694 1.4047359 4294901760
4.2834115 -3.3381484 -0.28460297 4294901760
5.7479458 -4.4811015 1.6826339 4294901760
4.9891706 -3.89096 -0.11043882 4294901760
5.778831 -4.5084238 1.9639189 4294901760
2.299284 -1.798337 -0.78215116 4294901760
5.8933568 -4.6110244 0.1306138 4294901760
2.5059705 -1.9614028 -0.73469019 4294901760
4.958323 -3.8822351 0.33003056 4294901760
2.7267895 -2.1350036 -0.67317414 4294901760
4.9220304 -3.8552048 0.54698944 4294901760
2.9963281 -2.3477328 -0.60289848 4294901760
5.874445 -4.6044984 0.91645753 4294901760
3.3445387 -2.6224532 -0.52184457 4294901760
5.6731238 -4.4498963 1.1419717 4294901760
3.7576966 -2.9474697 -0.41782463 4294901760
5.6159139 -4.4066052 1.3875631 4294901760
4.2827306 -3.361712 -0.28533566 4294901760
5.6341763 -4.4241133 1.6538402 4294901760
4.9944286 -3.9231749 -0.11085769 4294901760
5.6764755 -4.4605322 1.9344137 4294901760
2.3005805 -1.8123295 -0.78473938 4294901760
5.7955537 -4.5672059 0.12879875 4294901760
2.4914565 -1.964106 -0.73244059 4294901760
4.9572878 -3.9094136 0.33086795 4294901760
2.7285697 -2.151803 -0.67546391 4294901760
4.9085431 -3.8723626 0.54698944 4294901760
2.9912162 -2.3606253 -0.60352427 4294901760
5.7555046 -4.5437927 0.90037078 4294901760
3.3384805 -2.6365728 -0.52233207 4294901760
5.5676556 -4.3986473 1.1238253 4294901760
3.7520754 -2.9642739 -0.41834757 4294901760
5.50808 -4.3531423 1.364666 4294901760
4.2694035 -3.3754022 -0.28523099 4294901760
5.5178189 -4.3639688 1.6241466 4294901760
4.9901133 -3.948029 -0.11106712 4294901760
5.5805855 -4.4167781 1.9069788 4294901760
2.29424 -1.8203491 -0.78473938 4294901760
5.6715026 -4.5016274 0.12639034 4294901760
2.4845853 -1.9727906 -0.73244059 4294901760
4.9310994 -3.9167557 0.33003056 4294901760
2.7210417 -2.1613145 -0.67546391 4294901760
4.9043555 -3.8969092 0.54803526 4294901760
2.9891434 -2.3759687 -0.60477573 4294901760
5.655705 -4.497139 0.88720888 4294901760
3.3292565 -2.6482105 -0.52233207 4294901760
5.471889 -4.3540969 1.1075561 4294901760
3.7510593 -2.9847965 -0.41939342 4294901760
5.4175858 -4.3124309 1.3459667 4294901760
4.2575946 -3.390285 -0.28523099 4294901760
5.4187179 -4.3164229 1.599402 4294901760
4.9731736 -3.9629319 -0.1109973 4294901760
5.4760075 -4.3651834 1.8764381 4294901760
2.2945485 -1.8323697 -0.78680992 4294901760
5.5542159 -4.4370475 0.12408661 4294901760
2.4814203 -1.9830197 -0.73334044 4294901760
4.9234505 -3.9359696 0.33034459 4294901760
2.7138598 -2.170326 -0.67546391 4294901760
4.9029808 -3.9210083 0.54925549 4294901760
2.9878337 -2.3902836 -0.60602719 4294901760
3.3255694 -2.6623783 -0.5230633 4294901760
5.3733807 -4.3033504 1.0903484 4294901760
3.7380307 -2.9947276 -0.41904479 4294901760
5.320529 -4.2640719 1.3253593 4294901760
4.2541203 -3.4106312 -0.28575432 4294901760
5.3169465 -4.2627249 1.5733078 4294901760
4.966939 -3.9835403 -0.11113693 4294901760
5.373364 -4.3110385 1.8458976 4294901760
2.2787862 -1.8335011 -0.7837041 4294901760
2.4771709 -1.9945456 -0.73424023 4294901760
4.9121022 -3.9564943 0.33055395 4294901760
2.6921279 -2.169172 -0.67202932 4294901760
4.8839221 -3.9352021 0.54873258 4294901760
2.979053 -2.4012184 -0.60602719 4294901760
3.3173342 -2.6757956 -0.52330703 4294901760
