# .PCD v0.7 - Point Cloud Data file format
VERSION 0.7
FIELDS x y z intensity
SIZE 4 4 4 4
TYPE F F F F
COUNT 1 1 1 1
WIDTH 107
HEIGHT 1
VIEWPOINT 0 0 0 1 0 0 0
POINTS 107
DATA ascii
2.9048088 -0.94329518 -0.28432381 100
2.9120142 -0.93748152 -0.28054476 100
2.91922 -0.93166792 -0.27676567 100
2.9264255 -0.92585427 -0.27298662 100
2.9336309 -0.92004067 -0.26920754 100
2.9408367 -0.91422701 -0.26542848 100
2.9480422 -0.90841335 -0.26164943 100
2.9552479 -0.90259975 -0.25787035 100
2.9624534 -0.89678609 -0.25409129 100
2.9696589 -0.8909725 -0.25031221 100
2.9768646 -0.88515884 -0.24653316 100
2.9840701 -0.87934524 -0.24275409 100
2.9912755 -0.87353158 -0.23897503 100
2.9984813 -0.86771792 -0.23519596 100
3.0056868 -0.86190432 -0.2314169 100
3.0128925 -0.85609066 -0.22763783 100
3.020098 -0.85027701 -0.22385876 100
3.0273035 -0.84446341 -0.22007969 100
3.0345092 -0.83864975 -0.21630062 100
3.0417147 -0.83283609 -0.21252155 100
3.0489204 -0.82702249 -0.20874248 100
3.0561259 -0.82120883 -0.20496342 100
3.0633314 -0.81539518 -0.20118435 100
3.0705371 -0.80958158 -0.19740529 100
3.0777426 -0.80376792 -0.19362622 100
3.0849481 -0.79795432 -0.18984716 100
3.0921538 -0.79214066 -0.18606809 100
3.0993593 -0.78632706 -0.18228903 100
3.106565 -0.78051341 -0.17850997 100
3.1137705 -0.77469981 -0.1747309 100
3.120976 -0.76888615 -0.17095184 100
3.1281817 -0.76307255 -0.16717277 100
3.1353872 -0.75725889 -0.16339372 100
3.2112436 -0.65592551 -0.038926959 100
3.2068624 -0.65518904 -0.032211717 100
3.2024813 -0.65445262 -0.025496477 100
3.1981001 -0.65371621 -0.018781235 100
3.1937189 -0.65297973 -0.012065995 100
3.1893377 -0.65224332 -0.0053507532 100
3.1849566 -0.6515069 0.0013644886 100
3.1805756 -0.65077043 0.0080797281 100
3.1761944 -0.65003401 0.014794967 100
3.1718132 -0.6492976 0.021510206 100
3.1674321 -0.64856112 0.028225446 100
3.1630509 -0.6478247 0.034940686 100
3.1586697 -0.64708829 0.041655924 100
3.1542885 -0.64635181 0.04837117 100
3.1499076 -0.6456154 0.055086415 100
3.1455264 -0.64487892 0.061801657 100
3.1411452 -0.64414251 0.068516903 100
3.136764 -0.64340609 0.075232148 100
3.1323829 -0.64266962 0.081947394 100
3.1280017 -0.6419332 0.088662639 100
3.1236205 -0.64119679 0.095377877 100
3.1192393 -0.64046031 0.10209312 100
3.1148584 -0.6397239 0.10880837 100
3.1104772 -0.63898748 0.11552361 100
3.106096 -0.63825101 0.12223886 100
3.1017148 -0.63751459 0.1289541 100
3.0973337 -0.63677818 0.13566934 100
3.0929525 -0.6360417 0.14238457 100
3.0885713 -0.63530529 0.14909981 100
3.0841904 -0.63456887 0.15581504 100
3.0798092 -0.6338324 0.16253027 100
3.075428 -0.63309598 0.16924551 100
3.0710468 -0.63235956 0.17596075 100
3.0666656 -0.63162309 0.18267597 100
3.0622845 -0.63088667 0.18939121 100
3.0579035 -0.63015026 0.19610645 100
3.0535223 -0.62941378 0.20282169 100
3.0491412 -0.62867737 0.20953691 100
3.04476 -0.62794095 0.21625215 100
3.0403788 -0.62720448 0.22296739 100
3.0359976 -0.62646806 0.22968262 100
3.0316164 -0.62573165 0.23639785 100
3.1779623 -0.52757752 -0.16542643 100
3.1735022 -0.51947337 -0.16922517 100
3.1690421 -0.51136929 -0.17302389 100
3.1645818 -0.50326514 -0.17682263 100
3.1601217 -0.49516103 -0.18062136 100
3.1556616 -0.48705691 -0.18442009 100
3.1512015 -0.4789528 -0.18821882 100
3.1467414 -0.47084868 -0.19201756 100
3.1422811 -0.46274456 -0.19581628 100
3.137821 -0.45464042 -0.19961502 100
3.1333609 -0.4465363 -0.20341374 100
3.1289008 -0.43843219 -0.20721248 100
3.1244407 -0.43032807 -0.2110112 100
3.1199806 -0.42222396 -0.21480994 100
3.1155202 -0.41411981 -0.21860868 100
3.1110601 -0.40601569 -0.2224074 100
3.1066 -0.39791158 -0.22620614 100
3.1021399 -0.38980743 -0.23000488 100
3.0976799 -0.38170332 -0.23380361 100
3.0932195 -0.3735992 -0.23760234 100
3.0887594 -0.36549506 -0.24140108 100
3.0842993 -0.35739094 -0.24519981 100
3.0798392 -0.34928682 -0.24899854 100
3.0753791 -0.34118268 -0.25279728 100
3.0709188 -0.33307856 -0.256596 100
3.0664587 -0.32497445 -0.26039475 100
3.0619986 -0.31687033 -0.26419348 100
3.0575385 -0.30876622 -0.2679922 100
3.0530784 -0.3006621 -0.27179092 100
3.0486181 -0.29255798 -0.27558964 100
3.044158 -0.28445387 -0.27938837 100
3.0396979 -0.27634975 -0.28318712 100
