# .PCD v0.7 - Point Cloud Data file format
VERSION 0.7
FIELDS x y z intensity
SIZE 4 4 4 4
TYPE F F F F
COUNT 1 1 1 1
WIDTH 131
HEIGHT 1
VIEWPOINT 0 0 0 1 0 0 0
POINTS 131
DATA ascii
2.9082181 -0.94421184 -0.29614839 100
2.9138739 -0.93946648 -0.29288554 100
2.9195297 -0.93472105 -0.28962266 100
2.9251854 -0.92997569 -0.28635979 100
2.930841 -0.92523032 -0.28309694 100
2.9364967 -0.92048496 -0.27983406 100
2.9421525 -0.91573954 -0.27657118 100
2.9478083 -0.91099417 -0.27330834 100
2.953464 -0.90624881 -0.27004546 100
2.9591198 -0.90150344 -0.26678258 100
2.9647756 -0.89675802 -0.26351973 100
2.9704313 -0.89201266 -0.26025686 100
2.9760871 -0.88726729 -0.25699401 100
2.9817429 -0.88252193 -0.25373113 100
2.9873984 -0.8777765 -0.25046825 100
2.9930542 -0.87303114 -0.24720539 100
2.9987099 -0.86828578 -0.24394251 100
3.0043657 -0.86354041 -0.24067965 100
3.0100214 -0.85879499 -0.23741679 100
3.0156772 -0.85404962 -0.23415391 100
3.021333 -0.84930426 -0.23089105 100
3.0269887 -0.84455884 -0.22762817 100
3.0326445 -0.83981347 -0.22436531 100
3.0383003 -0.83506811 -0.22110243 100
3.0439558 -0.83032274 -0.21783957 100
3.0496116 -0.82557732 -0.21457671 100
3.0552673 -0.82083195 -0.21131383 100
3.0609231 -0.81608659 -0.20805097 100
3.0665789 -0.81134123 -0.2047881 100
3.0722346 -0.80659586 -0.20152524 100
3.0778904 -0.80185044 -0.19826238 100
3.0835462 -0.79710507 -0.19499952 100
3.0892017 -0.79235971 -0.19173665 100
3.0948575 -0.78761435 -0.18847379 100
3.1005132 -0.78286898 -0.18521093 100
3.106169 -0.77812362 -0.18194807 100
3.1118248 -0.77337819 -0.17868519 100
3.1174805 -0.76863283 -0.17542233 100
3.1231363 -0.76388747 -0.17215946 100
3.128792 -0.7591421 -0.1688966 100
3.1344476 -0.75439674 -0.16563374 100
3.1401033 -0.74965137 -0.16237088 100
3.2298572 -0.65566933 -0.070582122 100
3.2254584 -0.6549601 -0.063693605 100
3.2210596 -0.65425086 -0.056805085 100
3.2166607 -0.65354162 -0.049916565 100
3.2122617 -0.65283239 -0.043028045 100
3.2078629 -0.65212315 -0.036139525 100
3.203464 -0.65141392 -0.029251004 100
3.1990652 -0.65070468 -0.022362486 100
3.1946664 -0.64999545 -0.015473966 100
3.1902673 -0.64928615 -0.0085854484 100
3.1858685 -0.64857692 -0.0016969302 100
3.1814697 -0.64786768 0.0051915883 100
3.1770709 -0.64715844 0.012080106 100
3.1726718 -0.64644921 0.018968631 100
3.168273 -0.64573997 0.025857152 100
3.1638741 -0.64503074 0.032745678 100
3.1594753 -0.6443215 0.039634202 100
3.1550765 -0.64361227 0.046522722 100
3.1506774 -0.64290303 0.053411245 100
3.1462786 -0.64219379 0.060299769 100
3.1418798 -0.64148456 0.067188293 100
3.137481 -0.64077532 0.074076816 100
3.1330819 -0.64006609 0.08096534 100
3.1286831 -0.63935685 0.087853864 100
3.1242843 -0.63864762 0.094742388 100
3.1198854 -0.63793838 0.10163091 100
3.1154866 -0.63722914 0.10851943 100
3.1110876 -0.63651991 0.11540794 100
3.1066887 -0.63581067 0.12229645 100
3.1022899 -0.63510144 0.12918496 100
3.0978911 -0.6343922 0.13607347 100
3.0934923 -0.63368297 0.14296199 100
3.0890932 -0.63297373 0.1498505 100
3.0846944 -0.63226449 0.15673901 100
3.0802956 -0.6315552 0.16362754 100
3.0758967 -0.63084596 0.17051604 100
3.0714979 -0.63013673 0.17740455 100
3.0670989 -0.62942749 0.18429306 100
3.0627 -0.62871826 0.19118159 100
3.0583012 -0.62800902 0.19807009 100
3.0539024 -0.62729979 0.2049586 100
3.0495036 -0.62659055 0.21184713 100
3.0451045 -0.62588131 0.21873564 100
3.0407057 -0.62517208 0.22562414 100
3.0363069 -0.62446284 0.23251267 100
3.1825593 -0.54321331 -0.15276846 100
3.1788039 -0.53664029 -0.15578263 100
3.1750484 -0.53006727 -0.1587968 100
3.171293 -0.52349418 -0.16181096 100
3.1675377 -0.51692116 -0.16482514 100
3.1637824 -0.51034808 -0.16783932 100
3.160027 -0.50377506 -0.17085348 100
3.1562717 -0.49720198 -0.17386766 100
3.1525164 -0.49062896 -0.17688182 100
3.148761 -0.48405591 -0.179896 100
3.1450055 -0.47748286 -0.18291017 100
3.1412501 -0.4709098 -0.18592434 100
3.1374948 -0.46433675 -0.18893851 100
3.1337395 -0.4577637 -0.19195269 100
3.1299841 -0.45119065 -0.19496685 100
3.1262288 -0.4446176 -0.19798103 100
3.1224735 -0.43804455 -0.20099521 100
3.1187181 -0.4314715 -0.20400937 100
3.1149626 -0.42489845 -0.20702355 100
3.1112072 -0.41832539 -0.21003772 100
3.1074519 -0.41175234 -0.2130519 100
3.1036966 -0.40517929 -0.21606606 100
3.0999413 -0.39860624 -0.21908024 100
3.0961859 -0.39203319 -0.22209442 100
3.0924306 -0.38546014 -0.22510858 100
3.088675 -0.37888709 -0.22812276 100
3.0849197 -0.37231404 -0.23113693 100
3.0811644 -0.36574098 -0.2341511 100
3.077409 -0.35916796 -0.23716526 100
3.0736537 -0.35259491 -0.24017943 100
3.0698984 -0.34602186 -0.2431936 100
3.066143 -0.33944881 -0.24620777 100
3.0623877 -0.33287579 -0.24922194 100
3.0586324 -0.32630274 -0.2522361 100
3.0548768 -0.31972969 -0.25525028 100
3.0511215 -0.31315666 -0.25826445 100
3.0473661 -0.30658361 -0.2612786 100
3.0436108 -0.30001056 -0.26429278 100
3.0398555 -0.29343751 -0.26730695 100
3.0361001 -0.28686449 -0.27032113 100
3.0323448 -0.28029144 -0.27333528 100
3.0285895 -0.27371839 -0.27634946 100
3.0248342 -0.26714537 -0.27936363 100
3.0210788 -0.26057231 -0.28237778 100
