# .PCD v0.7 - Point Cloud Data file format
VERSION 0.7
FIELDS x y z intensity
SIZE 4 4 4 4
TYPE F F F F
COUNT 1 1 1 1
WIDTH 134
HEIGHT 1
VIEWPOINT 0 0 0 1 0 0 0
POINTS 134
DATA ascii
2.8963842 -0.95283759 -0.29459685 100
2.9022107 -0.94805956 -0.29146838 100
2.9080369 -0.94328153 -0.28833988 100
2.9138634 -0.9385035 -0.28521141 100
2.9196899 -0.93372554 -0.28208295 100
2.9255164 -0.92894751 -0.27895448 100
2.9313428 -0.92416948 -0.27582601 100
2.9371693 -0.91939145 -0.27269754 100
2.9429955 -0.91461349 -0.26956904 100
2.948822 -0.90983546 -0.26644057 100
2.9546485 -0.90505743 -0.2633121 100
2.960475 -0.9002794 -0.26018363 100
2.9663014 -0.89550143 -0.25705516 100
2.9721279 -0.89072341 -0.25392669 100
2.9779541 -0.88594538 -0.2507982 100
2.9837806 -0.88116735 -0.24766973 100
2.9896071 -0.87638938 -0.24454126 100
2.9954336 -0.87161136 -0.24141279 100
3.00126 -0.86683333 -0.2382843 100
3.0070865 -0.8620553 -0.23515584 100
3.012913 -0.85727727 -0.23202735 100
3.0187392 -0.85249931 -0.22889888 100
3.0245657 -0.84772128 -0.2257704 100
3.0303922 -0.84294325 -0.22264193 100
3.0362186 -0.83816522 -0.21951346 100
3.0420451 -0.8333872 -0.21638498 100
3.0478716 -0.82860923 -0.21325651 100
3.0536978 -0.8238312 -0.21012804 100
3.0595243 -0.81905317 -0.20699957 100
3.0653508 -0.81427521 -0.2038711 100
3.0711772 -0.80949718 -0.20074263 100
3.0770037 -0.80471915 -0.19761415 100
3.0828302 -0.79994118 -0.19448568 100
3.0886564 -0.79516315 -0.19135721 100
3.0944829 -0.79038513 -0.18822874 100
3.1003094 -0.78560716 -0.18510027 100
3.1061358 -0.78082913 -0.1819718 100
3.1119623 -0.7760511 -0.17884333 100
3.1177886 -0.77127308 -0.17571487 100
3.123615 -0.76649511 -0.17258638 100
3.1294415 -0.76171708 -0.16945791 100
3.135268 -0.75693905 -0.16632944 100
3.1410944 -0.75216109 -0.16320097 100
3.1469207 -0.74738306 -0.16007251 100
3.2322428 -0.65739864 -0.072036684 100
3.2277787 -0.6566686 -0.065171309 100
3.2233148 -0.65593851 -0.058305934 100
3.2188509 -0.65520841 -0.051440563 100
3.2143869 -0.65447837 -0.044575188 100
3.209923 -0.65374827 -0.037709814 100
3.2054591 -0.65301824 -0.030844437 100
3.2009952 -0.65228814 -0.023979064 100
3.1965311 -0.65155804 -0.017113691 100
3.1920671 -0.650828 -0.010248319 100
3.1876032 -0.65009791 -0.0033829468 100
3.1831393 -0.64936787 0.0034824258 100
3.1786754 -0.64863777 0.010347798 100
3.1742115 -0.64790773 0.017213177 100
3.1697476 -0.64717764 0.024078554 100
3.1652834 -0.64644754 0.030943932 100
3.1608195 -0.6457175 0.037809309 100
3.1563556 -0.6449874 0.044674687 100
3.1518917 -0.64425737 0.051540066 100
3.1474278 -0.64352727 0.058405444 100
3.1429639 -0.64279717 0.065270819 100
3.1385 -0.64206713 0.072136201 100
3.1340358 -0.64133704 0.079001576 100
3.1295719 -0.640607 0.08586695 100
3.125108 -0.6398769 0.092732333 100
3.1206441 -0.63914686 0.099597707 100
3.1161802 -0.63841677 0.10646307 100
3.1117163 -0.63768667 0.11332844 100
3.1072524 -0.63695663 0.12019381 100
3.1027882 -0.63622653 0.12705918 100
3.0983243 -0.6354965 0.13392454 100
3.0938604 -0.6347664 0.14078991 100
3.0893965 -0.63403636 0.14765528 100
3.0849326 -0.63330626 0.15452065 100
3.0804687 -0.63257617 0.16138601 100
3.0760047 -0.63184613 0.16825138 100
3.0715408 -0.63111603 0.17511675 100
3.0670767 -0.63038599 0.18198211 100
3.0626128 -0.6296559 0.18884748 100
3.0581489 -0.62892586 0.19571285 100
3.0536849 -0.62819576 0.20257822 100
3.049221 -0.62746567 0.20944358 100
3.0447571 -0.62673563 0.21630895 100
3.0402932 -0.62600553 0.22317432 100
3.0358293 -0.62527549 0.23003969 100
3.1872916 -0.54397565 -0.15702251 100
3.1835809 -0.53734094 -0.16007358 100
3.1798699 -0.53070617 -0.16312467 100
3.1761591 -0.52407146 -0.16617574 100
3.1724482 -0.51743674 -0.16922681 100
3.1687372 -0.51080203 -0.17227788 100
3.1650264 -0.50416726 -0.17532896 100
3.1613154 -0.49753255 -0.17838004 100
3.1576045 -0.4908978 -0.18143111 100
3.1538937 -0.48426309 -0.18448219 100
3.1501827 -0.47762835 -0.18753326 100
3.1464717 -0.47099364 -0.19058433 100
3.142761 -0.4643589 -0.1936354 100
3.13905 -0.45772418 -0.19668648 100
3.1353393 -0.45108944 -0.19973756 100
3.1316283 -0.4444547 -0.20278864 100
3.1279173 -0.43781999 -0.20583971 100
3.1242065 -0.43118525 -0.2088908 100
3.1204956 -0.4245505 -0.21194187 100
3.1167846 -0.41791579 -0.21499294 100
3.1130738 -0.41128105 -0.21804401 100
3.1093628 -0.40464631 -0.2210951 100
3.1056519 -0.3980116 -0.22414617 100
3.1019411 -0.39137685 -0.22719724 100
3.0982301 -0.38474211 -0.23024833 100
3.0945191 -0.3781074 -0.2332994 100
3.0908084 -0.37147266 -0.23635048 100
3.0870974 -0.36483794 -0.23940155 100
3.0833867 -0.35820323 -0.24245262 100
3.0796757 -0.35156849 -0.24550369 100
3.0759647 -0.34493378 -0.24855477 100
3.0722539 -0.33829907 -0.25160584 100
3.068543 -0.33166432 -0.25465691 100
3.0648322 -0.32502961 -0.25770798 100
3.0611212 -0.3183949 -0.26075906 100
3.0574102 -0.31176016 -0.26381013 100
3.0536995 -0.30512545 -0.2668612 100
3.0499885 -0.29849073 -0.26991227 100
3.0462775 -0.29185599 -0.27296335 100
3.0425668 -0.28522128 -0.27601442 100
3.0388558 -0.27858657 -0.27906549 100
3.035145 -0.27195182 -0.28211656 100
3.0314341 -0.26531711 -0.28516763 100
3.0277231 -0.2586824 -0.28821871 100
3.0240123 -0.25204766 -0.29126978 100
