# .PCD v0.7 - Point Cloud Data file format
VERSION 0.7
FIELDS x y z intensity
SIZE 4 4 4 4
TYPE F F F F
COUNT 1 1 1 1
WIDTH 133
HEIGHT 1
VIEWPOINT 0 0 0 1 0 0 0
POINTS 133
DATA ascii
2.8892164 -0.95624083 -0.29551044 100
2.8950205 -0.9514544 -0.29235116 100
2.9008243 -0.94666797 -0.2891919 100
2.9066281 -0.9418816 -0.28603262 100
2.9124322 -0.93709517 -0.28287333 100
2.918236 -0.93230873 -0.27971408 100
2.9240398 -0.92752236 -0.27655479 100
2.9298437 -0.92273593 -0.27339551 100
2.9356477 -0.9179495 -0.27023625 100
2.9414515 -0.91316313 -0.26707697 100
2.9472554 -0.90837669 -0.26391768 100
2.9530594 -0.90359026 -0.26075843 100
2.9588633 -0.89880389 -0.25759915 100
2.9646671 -0.89401746 -0.25443986 100
2.9704709 -0.88923103 -0.25128061 100
2.976275 -0.88444459 -0.24812132 100
2.9820788 -0.87965822 -0.24496205 100
2.9878826 -0.87487179 -0.24180277 100
2.9936867 -0.87008536 -0.2386435 100
2.9994905 -0.86529893 -0.23548421 100
3.0052943 -0.86051255 -0.23232494 100
3.0110984 -0.85572612 -0.22916566 100
3.0169022 -0.85093969 -0.22600639 100
3.022706 -0.84615326 -0.22284712 100
3.0285099 -0.84136689 -0.21968783 100
3.0343139 -0.83658046 -0.21652856 100
3.0401177 -0.83179402 -0.2133693 100
3.0459216 -0.82700765 -0.21021001 100
3.0517256 -0.82222122 -0.20705074 100
3.0575294 -0.81743479 -0.20389147 100
3.0633333 -0.81264842 -0.2007322 100
3.0691371 -0.80786198 -0.19757293 100
3.0749412 -0.80307561 -0.19441366 100
3.080745 -0.79828918 -0.19125439 100
3.0865488 -0.79350275 -0.18809512 100
3.0923526 -0.78871638 -0.18493585 100
3.0981567 -0.78392994 -0.18177657 100
3.1039605 -0.77914357 -0.1786173 100
3.1097643 -0.77435714 -0.17545803 100
3.1155682 -0.76957071 -0.17229876 100
3.1213722 -0.76478434 -0.16913949 100
3.127176 -0.7599979 -0.16598022 100
3.1329799 -0.75521147 -0.16282095 100
3.1387839 -0.7504251 -0.15966168 100
3.1870441 -0.5467965 -0.15320686 100
3.1833894 -0.54017156 -0.15636213 100
3.1797345 -0.53354663 -0.15951742 100
3.1760798 -0.52692169 -0.1626727 100
3.1724248 -0.52029675 -0.16582799 100
3.1687701 -0.51367182 -0.16898327 100
3.1651154 -0.50704688 -0.17213856 100
3.1614604 -0.50042194 -0.17529383 100
3.1578057 -0.493797 -0.17844912 100
3.154151 -0.4871721 -0.1816044 100
3.150496 -0.48054716 -0.18475969 100
3.1468413 -0.47392222 -0.18791497 100
3.1431863 -0.46729729 -0.19107026 100
3.1395316 -0.46067235 -0.19422553 100
3.1358769 -0.45404741 -0.19738083 100
3.1322219 -0.4474225 -0.20053612 100
3.1285672 -0.44079757 -0.20369139 100
3.1249123 -0.43417263 -0.20684668 100
3.1212575 -0.42754769 -0.21000196 100
3.1176028 -0.42092276 -0.21315725 100
3.1139479 -0.41429782 -0.21631254 100
3.1102931 -0.40767288 -0.21946782 100
3.1066384 -0.40104795 -0.22262311 100
3.1029835 -0.39442301 -0.2257784 100
3.0993288 -0.38779807 -0.22893368 100
3.0956738 -0.38117313 -0.23208897 100
3.0920191 -0.3745482 -0.23524424 100
3.0883644 -0.36792329 -0.23839954 100
3.0847094 -0.36129835 -0.24155481 100
3.0810547 -0.35467345 -0.24471009 100
3.0773997 -0.34804851 -0.24786538 100
3.073745 -0.34142357 -0.25102064 100
3.0700903 -0.33479866 -0.25417593 100
3.0664353 -0.32817373 -0.25733122 100
3.0627806 -0.32154882 -0.26048648 100
3.0591259 -0.31492388 -0.26364177 100
3.0554709 -0.30829895 -0.26679707 100
3.0518162 -0.30167404 -0.26995233 100
3.0481615 -0.2950491 -0.27310762 100
3.0445065 -0.28842416 -0.27626291 100
3.0408518 -0.28179926 -0.27941817 100
3.0371969 -0.27517432 -0.28257346 100
3.0335422 -0.26854941 -0.28572875 100
3.0298874 -0.26192448 -0.28888401 100
3.0262325 -0.25529954 -0.2920393 100
3.2254772 -0.6555934 -0.062932596 100
3.2210579 -0.65488374 -0.056095004 100
3.2166383 -0.65417409 -0.049257416 100
3.212219 -0.65346444 -0.042419832 100
3.2077994 -0.65275472 -0.035582244 100
3.2033801 -0.65204507 -0.028744655 100
3.1989605 -0.65133542 -0.021907065 100
3.1945412 -0.65062577 -0.015069479 100
3.1901217 -0.64991611 -0.0082318923 100
3.1857023 -0.64920646 -0.0013943062 100
3.1812828 -0.64849681 0.0054432801 100
3.1768634 -0.64778715 0.012280867 100
3.1724439 -0.6470775 0.019118452 100
3.1680243 -0.64636785 0.025956044 100
3.163605 -0.6456582 0.032793637 100
3.1591854 -0.64494854 0.039631229 100
3.1547661 -0.64423889 0.046468817 100
3.1503465 -0.64352924 0.053306408 100
3.1459272 -0.64281958 0.060144 100
3.1415076 -0.64210993 0.066981591 100
3.1370883 -0.64140028 0.073819183 100
3.1326687 -0.64069062 0.080656774 100
3.1282494 -0.63998097 0.087494366 100
3.1238298 -0.63927132 0.094331957 100
3.1194105 -0.63856167 0.10116955 100
3.1149909 -0.63785201 0.10800714 100
3.1105716 -0.63714236 0.11484472 100
3.1061521 -0.63643271 0.1216823 100
3.1017325 -0.63572305 0.12851988 100
3.0973132 -0.6350134 0.13535747 100
3.0928936 -0.63430375 0.14219505 100
3.0884743 -0.6335941 0.14903262 100
3.0840547 -0.63288444 0.15587021 100
3.0796354 -0.63217479 0.16270779 100
3.0752158 -0.63146514 0.16954537 100
3.0707965 -0.63075548 0.17638296 100
3.0663769 -0.63004583 0.18322054 100
3.0619576 -0.62933618 0.19005811 100
3.057538 -0.62862653 0.1968957 100
3.0531187 -0.62791687 0.20373328 100
3.0486991 -0.62720722 0.21057086 100
3.0442798 -0.62649757 0.21740843 100
3.0398602 -0.62578791 0.22424603 100
3.0354409 -0.62507826 0.2310836 100
