# .PCD v0.7 - Point Cloud Data file format
VERSION 0.7
FIELDS x y z rgb
SIZE 4 4 4 4
TYPE F F F U
COUNT 1 1 1 1
WIDTH 407
HEIGHT 1
VIEWPOINT 0 0 0 1 0 0 0
POINTS 407
DATA ascii
3.0732729 -0.61242723 0.16423026 4288145246
3.2113307 -0.64518505 -0.057174087 4288145246
3.1495564 -0.63792276 0.056092035 4288145246
3.0769885 -0.62434268 0.16454425 4288145246
3.0145998 -0.61277932 0.26913694 4288145246
3.2423644 -0.66320312 -0.057767466 4288145246
3.1492689 -0.64931661 0.056126937 4288145246
3.0788136 -0.63535029 0.16475362 4288145246
3.0242579 -0.62519282 0.27018279 4288145246
3.2088223 -0.66743606 -0.057208989 4288145246
3.1333983 -0.65688437 0.055882607 4288145246
3.0668037 -0.64404112 0.16423026 4288145246
2.9986606 -0.63082379 0.26809105 4288145246
3.2025604 -0.67780477 -0.057139181 4288145246
3.1094577 -0.66377228 0.055498652 4288145246
3.054657 -0.65318894 0.1637069 4288145246
2.9789059 -0.63753456 0.26652226 4288145246
3.1805065 -0.68532598 -0.056790132 4288145246
3.0993052 -0.67292511 0.055359036 4288145246
3.0484548 -0.66299874 0.16349754 4288145246
2.9688752 -0.64623392 0.265825 4288145246
3.1663747 -0.69385552 -0.0565807 4288145246
3.0852213 -0.68115294 0.055149604 4288145246
3.01882 -0.66759813 0.16203214 4288145246
2.9549296 -0.65401 0.26477915 4288145246
3.1600296 -0.70403433 -0.056510892 4288145246
3.0750203 -0.69016653 0.055009987 4288145246
3.0008824 -0.67462718 0.16119476 4288145246
2.948741 -0.66344595 0.26443052 4288145246
3.1263478 -0.70799387 -0.055952415 4288145246
3.0686932 -0.70000666 0.054940179 4288145246
2.9946151 -0.68420833 0.16098543 4288145246
2.9269845 -0.66929376 0.26268741 4288145246
3.1121652 -0.7162118 -0.055742987 4288145246
3.0428543 -0.70529574 0.054521319 4288145246
2.9805353 -0.69194734 0.16035739 4288145246
2.9110456 -0.67635041 0.26146722 4288145246
3.1018572 -0.72524977 -0.055603366 4288145246
3.0248022 -0.71224636 0.054242078 4288145246
2.9742138 -0.7014302 0.16014804 4288145246
2.8989713 -0.68421942 0.26059568 4288145246
3.1229942 -0.740547 -0.16820778 4288145246
3.0915244 -0.73422462 -0.05546375 4288145246
3.0145183 -0.72094005 0.054102462 4288145246
2.9484396 -0.7062251 0.15889199 4288145246
2.8926902 -0.69340563 0.26024702 4288145246
3.1184485 -0.75097615 -0.16810311 4288145246
3.0772791 -0.74219841 -0.055254318 4288145246
3.0080967 -0.73051447 0.05403265 4288145246
2.9344368 -0.71316856 0.15826395 4288145246
2.8786368 -0.70067161 0.25920117 4288145246
3.1138678 -0.76138258 -0.16799843 4288145246
3.0514922 -0.7466954 -0.054835461 4288145246
2.9978912 -0.7385723 0.05389303 4288145246
2.9242988 -0.72098315 0.15784526 4288145246
2.864692 -0.70734799 0.25815532 4288145246
3.111326 -0.77170432 -0.16799843 4288145246
3.0412359 -0.75488335 -0.054695841 4288145246
2.964385 -0.74075305 0.053334557 4288145246
2.9178894 -0.73021674 0.15763591 4288145246
2.8430035 -0.71200341 0.25641218 4288145246
3.0971284 -0.77909428 -0.16737041 4288145246
3.0308261 -0.76354063 -0.054556224 4288145246
2.9617813 -0.75109613 0.053334557 4288145246
2.9075794 -0.73843116 0.15721723 4288145246
2.832777 -0.71995997 0.25571495 4288145246
3.0789082 -0.78594851 -0.16653302 4288145246
3.0242677 -0.77312511 -0.054486416 4288145246
2.9513948 -0.75943679 0.053194933 4288145246
2.8817754 -0.74259531 0.15596117 4288145246
2.8418221 -0.73282892 0.25676081 4288145246
3.066479 -0.79418743 -0.16600966 4288145246
3.0099366 -0.78066474 -0.054276984 4288145246
2.9409864 -0.7677142 0.053055316 4288145246
2.8675716 -0.74961925 0.15533313 4288145246
3.0501659 -0.80133408 -0.16527697 4288145246
2.9839866 -0.78506118 -0.053858127 4288145246
2.9305563 -0.7759282 0.052915696 4288145246
2.8572152 -0.75757682 0.15491444 4288145246
3.0396302 -0.80991936 -0.16485828 4288145246
2.9657712 -0.79134816 -0.053578887 4288145246
2.9046545 -0.77993011 0.052496839 4288145246
2.8545535 -0.7675457 0.15491444 4288145246
3.0252161 -0.81739897 -0.16423026 4288145246
2.9552696 -0.79960668 -0.053439267 4288145246
2.8903375 -0.78691262 0.052287407 4288145246
2.8480029 -0.77645469 0.15470509 4288145246
3.0069342 -0.82373232 -0.16339287 4288145246
2.9524603 -0.80991763 -0.053439267 4288145246
2.8760076 -0.79380482 0.052077983 4288145246
2.8183241 -0.77894253 0.1532397 4288145246
2.9770982 -0.82674164 -0.16192746 4288145246
2.9380558 -0.81700432 -0.053229842 4288145246
2.8770704 -0.80491656 0.052147791 4288145246
2.8118789 -0.78720713 0.15303035 4288145246
2.9799619 -0.83875197 -0.16224147 4288145246
2.9199319 -0.8224057 -0.052950602 4288145246
2.8705378 -0.81336266 0.052077983 4288145246
2.8014281 -0.79483706 0.15261166 4288145246
2.977164 -0.8486293 -0.16224147 4288145246
2.90166 -0.82820237 -0.052671362 4288145246
2.8446164 -0.81675535 0.051659122 4288145246
2.7909589 -0.80240357 0.15219298 4288145246
2.9626706 -0.85569102 -0.16161345 4288145246
2.8968306 -0.83777052 -0.052636456 4288145246
2.8263876 -0.82221138 0.051379886 4288145246
2.7843056 -0.81102383 0.15198363 4288145246
2.9404969 -0.86041862 -0.16056673 4288145246
2.8881314 -0.84619057 -0.052531745 4288145246
2.8196638 -0.8309418 0.051310074 4288145246
2.9860194 -0.88393235 -0.27244884 4288145246
2.9202416 -0.86556941 -0.15962468 4288145246
2.8774917 -0.85399091 -0.052392125 4288145246
2.8090816 -0.83849132 0.051170457 4288145246
2.9810071 -0.89377797 -0.27227452 4288145246
2.9133766 -0.87460911 -0.15941535 4288145246
2.8515127 -0.85712254 -0.051973268 4288145246
2.8023093 -0.84713453 0.051100649 4288145246
2.9548352 -0.89774758 -0.27018279 4288145246
2.9064839 -0.88361144 -0.15920599 4288145246
2.8408511 -0.86474162 -0.051833645 4288145246
2.778302 -0.85047269 0.050716694 4288145246
2.9440665 -0.90571308 -0.26948556 4288145246
2.8994083 -0.89308238 -0.15899664 4288145246
2.8301716 -0.87229675 -0.051694028 4288145246
2.7637062 -0.8570959 0.050507262 4288145246
2.9426291 -0.9170903 -0.26965985 4288145246
2.8752995 -0.89665723 -0.15784526 4288145246
2.823138 -0.88147211 -0.05162422 4288145246
2.7606974 -0.8667379 0.050507262 4288145246
2.9337096 -0.92555809 -0.26913694 4288145246
2.8586624 -0.90297854 -0.15711255 4288145246
2.8124168 -0.88891071 -0.051484596 4288145246
2.7670305 -0.87988037 0.050681788 4288145246
2.9266651 -0.9345808 -0.26878831 4288145246
2.8535905 -0.91234344 -0.15700789 4288145246
2.7902505 -0.89262933 -0.051135551 4288145246
2.9083822 -0.9393819 -0.2673938 4288145246
2.8524497 -0.92241585 -0.15711255 4288145246
2.7758598 -0.89818364 -0.050926123 4288145246
2.8956165 -0.94643337 -0.26652226 4288145246
2.8379855 -0.92814481 -0.15648453 4288145246
2.7689068 -0.90662318 -0.050856311 4288145246
2.8866203 -0.95465833 -0.26599932 4288145246
2.8080199 -0.92975134 -0.15501912 4288145246
2.7657254 -0.91628289 -0.050856311 4288145246
2.868155 -0.9596712 -0.26460484 4288145246
2.8009698 -0.93827868 -0.15480977 4288145246
2.8572388 -0.9671219 -0.26390758 4288145246
2.7882195 -0.94484508 -0.15428641 4288145246
2.8349957 -0.97063601 -0.26216447 4288145246
2.7792366 -0.95262927 -0.1539724 4288145246
2.8185816 -0.97547048 -0.26094431 4288145246
3.034018 -0.27398172 -0.26652226 4279524492
3.0508962 -0.28624576 -0.26809105 4279524492
3.0637596 -0.29824492 -0.26931125 4279524492
3.0687008 -0.30900192 -0.26983419 4279524492
3.0537322 -0.31826609 -0.26861399 4279524492
2.9250855 -0.3141506 -0.36122078 4279524492
3.0605259 -0.32977745 -0.26931125 4279524492
2.9298899 -0.32501575 -0.36195198 4279524492
3.0573761 -0.3402383 -0.26913694 4279524492
2.9168463 -0.33439559 -0.36048955 4279524492
3.0640874 -0.35181755 -0.26983419 4279524492
2.9038928 -0.34267056 -0.35902712 4279524492
3.0608618 -0.36227688 -0.26965985 4279524492
2.9007087 -0.35256547 -0.35878339 4279524492
3.0477772 -0.37098068 -0.26861399 4279524492
2.9054325 -0.3629207 -0.35951459 4279524492
3.0444868 -0.38136947 -0.26843968 4279524492
2.9001451 -0.3730607 -0.35902712 4279524492
3.0451131 -0.39224893 -0.26861399 4279524492
2.8830814 -0.38110071 -0.35707721 4279524492
3.0476756 -0.40339887 -0.26896262 4279524492
2.8876348 -0.39196327 -0.35780841 4279524492
3.0442746 -0.41376638 -0.26878831 4279524492
2.8842831 -0.40176675 -0.35756469 4279524492
3.0388651 -0.42383996 -0.26843968 4279524492
2.8946538 -0.41351667 -0.35902712 4279524492
3.0334225 -0.43388075 -0.26809105 4279524492
2.8931928 -0.42361838 -0.35902712 4279524492
3.0378036 -0.44533375 -0.26861399 4279524492
2.8740282 -0.43106493 -0.35683349 4279524492
3.0382006 -0.45623079 -0.26878831 4279524492
2.8803542 -0.44229972 -0.35780841 4279524492
3.0326512 -0.46622786 -0.26843968 4279524492
3.1445198 -0.48454973 -0.16674237 4279524492
2.878793 -0.4523513 -0.35780841 4279524492
3.0211642 -0.47526282 -0.26756814 4279524492
3.1566195 -0.49770066 -0.16747507 4279524492
2.8830762 -0.46334243 -0.35853964 4279524492
3.0155528 -0.48517278 -0.26721951 4279524492
3.1627502 -0.50998807 -0.16789377 4279524492
2.8794825 -0.47308159 -0.35829589 4279524492
3.0295689 -0.49828291 -0.26861399 4279524492
3.1609507 -0.521025 -0.16789377 4279524492
2.8661513 -0.48065776 -0.35683349 4279524492
3.0179863 -0.50720394 -0.26774243 4279524492
3.1631448 -0.53216702 -0.16810311 4279524492
2.8722823 -0.49200016 -0.35780841 4279524492
3.0142341 -0.51739854 -0.26756814 4279524492
3.1652045 -0.54388165 -0.16831245 4279524492
2.8607702 -0.50031346 -0.35658973 4279524492
3.0045598 -0.52654135 -0.26687086 4279524492
3.1710587 -0.55686086 -0.16873114 4279524492
2.8726859 -0.51273799 -0.35829589 4279524492
3.0027034 -0.53702599 -0.26687086 4279524492
3.1671293 -0.56757414 -0.16862647 4279524492
2.8709698 -0.52226126 -0.35829589 4279524492
3.0107064 -0.54876673 -0.26774243 4279524492
3.157371 -0.57663828 -0.16820778 4279524492
2.8535149 -0.52938288 -0.35634598 4279524492
3.0068138 -0.55890858 -0.26756814 4279524492
3.1495507 -0.58600932 -0.16789377 4279524492
2.8516495 -0.53934032 -0.35634598 4279524492
3.0068021 -0.56977183 -0.26774243 4279524492
3.1571927 -0.59941173 -0.16841713 4279524492
2.8516028 -0.55016452 -0.35658973 4279524492
2.9930575 -0.57799745 -0.26669657 4279524492
3.1511595 -0.60966998 -0.16820778 4279524492
2.8671958 -0.56356084 -0.35878339 4279524492
2.9910219 -0.58844167 -0.26669657 4279524492
3.152931 -0.62143832 -0.16841713 4279524492
2.8632643 -0.57317609 -0.35853964 4279524492
2.9987171 -0.6008358 -0.26756814 4279524492
3.1468263 -0.6316542 -0.16820778 4279524492
2.8516221 -0.58068734 -0.35732093 4279524492
3.0044105 -0.61289257 -0.26826537 4279524492
3.1408005 -0.64128679 -0.16799843 4279524492
2.8456905 -0.58983213 -0.35683349 4279524492
2.9984596 -0.62204272 -0.26791674 4279524492
3.1404984 -0.6526528 -0.16810311 4279524492
2.8534307 -0.60131216 -0.35805216 4279524492
2.9884725 -0.63085949 -0.26721951 4279524492
3.1480875 -0.66512775 -0.16862647 4279524492
2.8512077 -0.61176652 -0.35805216 4279524492
2.9804082 -0.64003241 -0.26669657 4279524492
3.1456285 -0.67666161 -0.16862647 4279524492
2.8529339 -0.62256175 -0.35853964 4279524492
2.9839954 -0.65170741 -0.26721951 4279524492
3.1295896 -0.68464994 -0.16789377 4279524492
2.8333015 -0.62864661 -0.35634598 4279524492
2.9894822 -0.66384715 -0.26791674 4279524492
3.1271808 -0.69557017 -0.16789377 4279524492
2.8388357 -0.64027995 -0.35732093 4279524492
2.9890902 -0.67471707 -0.26809105 4279524492
3.13837 -0.70956486 -0.16862647 4279524492
2.8365834 -0.65018541 -0.35732093 4279524492
2.9847751 -0.68470132 -0.26791674 4279524492
3.1397672 -0.72140998 -0.1688358 4279524492
2.8497632 -0.66368502 -0.35927087 4279524492
2.9784861 -0.69421148 -0.26756814 4279524492
3.1352851 -0.73191142 -0.16873114 4279524492
2.8397021 -0.67180049 -0.35829589 4279524492
2.9837999 -0.70644021 -0.26826537 4279524492
2.8276889 -0.67939001 -0.35707721 4279524492
2.9871273 -0.71824861 -0.26878831 4279524492
2.8273492 -0.68923342 -0.35732093 4279524492
2.984602 -0.72867131 -0.26878831 4279524492
2.8385372 -0.70194119 -0.35902712 4279524492
2.9763672 -0.73712772 -0.26826537 4279524492
2.8399205 -0.71281183 -0.35951459 4279524492
2.9719739 -0.74650824 -0.26809105 4279524492
2.8431859 -0.72419059 -0.36024579 4279524492
2.9770727 -0.75884628 -0.26878831 4279524492
2.8291094 -0.73113072 -0.35878339 4279524492
2.9859793 -0.77222675 -0.26983419 4279524492
2.8246198 -0.74049824 -0.35853964 4279524492
2.9851925 -0.78315061 -0.27000847 4279524492
2.8220177 -0.75035346 -0.35853964 4279524492
2.9766648 -0.79202926 -0.26948556 4279524492
2.8289645 -0.76278347 -0.35975835 4279524492
2.9700346 -0.80137682 -0.26913694 4279524492
2.8281996 -0.77317727 -0.36000207 4279524492
2.9749062 -0.81384224 -0.26983419 4279524492
2.8254836 -0.78304482 -0.36000207 4279524492
2.9835668 -0.8274163 -0.27088004 4279524492
2.8169994 -0.79129231 -0.35927087 4279524492
2.9768243 -0.83674759 -0.27053142 4279524492
2.8143599 -0.8006295 -0.35927087 4279524492
2.9604723 -0.84331262 -0.26931125 4279524492
2.8229923 -0.81374753 -0.36073327 4279524492
2.959574 -0.85367757 -0.26948556 4279524492
2.8220406 -0.82415313 -0.36097702 4279524492
2.9661381 -0.86679757 -0.2703571 4279524492
2.8096285 -0.83118325 -0.35975835 4279524492
2.8010054 -0.83927631 -0.35902712 4279524492
2.8132553 -0.85365975 -0.36097702 4279524492
2.819746 -0.86638975 -0.36219573 4279524492
2.8013885 -0.87199891 -0.36024579 4279524492
2.8059011 -0.88415879 -0.36122078 4279524492
2.9985945 -0.2180984 -0.26303601 4290224828
2.9234135 -0.22391795 -0.15365838 4290224828
3.014874 -0.24045271 -0.26460484 4290224828
3.0239437 -0.25180176 -0.26547641 4290224828
2.9357111 -0.2454866 -0.15439108 4290224828
3.0210612 -0.26218352 -0.26530206 4290224828
2.9547336 -0.25746644 -0.1554378 4290224828
2.8964934 -0.25341031 -0.0507516 4290224828
2.9697297 -0.26922137 -0.15627518 4290224828
2.9647949 -0.27921152 -0.15606584 4290224828
2.9086373 -0.27443498 -0.050995931 4290224828
2.9797554 -0.29059243 -0.15690321 4290224828
2.9196029 -0.2857551 -0.051205363 4290224828
2.9866714 -0.30179513 -0.1573219 4290224828
2.9106808 -0.29462969 -0.051065743 4290224828
2.8962901 -0.29776984 0.050821409 4290224828
3.0055189 -0.31377149 -0.15836863 4290224828
2.9255452 -0.30645475 -0.05134498 4290224828
2.8693829 -0.30512905 0.050367646 4290224828
3.0103621 -0.32490373 -0.15868263 4290224828
2.9363861 -0.31795654 -0.051554412 4290224828
2.8722754 -0.31558001 0.050437454 4290224828
3.017091 -0.33682147 -0.15910132 4290224828
2.9471819 -0.32953775 -0.051763836 4290224828
2.8889821 -0.32813641 0.0507516 4290224828
3.0258179 -0.34849361 -0.15962468 4290224828
2.961906 -0.34165651 -0.052043077 4290224828
2.8997946 -0.33910841 0.050961025 4290224828
3.0365458 -0.35993624 -0.16025271 4290224828
2.9646668 -0.35246557 -0.052112885 4290224828
2.9144762 -0.35114211 0.051240265 4290224828
3.0531137 -0.37271178 -0.16119476 4290224828
2.9753911 -0.36375079 -0.052322313 4290224828
2.9132957 -0.36080492 0.051240265 4290224828
2.8798897 -0.35768843 0.1520883 4290224828
3.0617695 -0.38407719 -0.16171812 4290224828
2.9820395 -0.37513304 -0.052461933 4290224828
2.9278224 -0.37350464 0.051519506 4290224828
3.0643029 -0.39580825 -0.16192746 4290224828
3.0004761 -0.38862881 -0.052810986 4290224828
2.9383974 -0.38528222 0.051728934 4290224828
2.8752761 -0.37802675 0.15198363 4290224828
3.0688422 -0.40729058 -0.16224147 4290224828
3.00703 -0.40015519 -0.052950602 4290224828
2.9528892 -0.39767194 0.052008174 4290224828
2.8778977 -0.38859558 0.15219298 4290224828
3.0852125 -0.42042741 -0.16318353 4290224828
3.0095773 -0.41119057 -0.05302041 4290224828
2.9594061 -0.40907231 0.052147791 4290224828
2.8963072 -0.4013806 0.1532397 4290224828
3.1094403 -0.43478987 -0.16454425 4290224828
3.0239663 -0.4239144 -0.053299651 4290224828
2.9658797 -0.42052293 0.052287407 4290224828
2.9146624 -0.41429889 0.15428641 4290224828
3.1158121 -0.44677514 -0.16496295 4290224828
3.0383031 -0.43674356 -0.053578887 4290224828
2.9762676 -0.43259904 0.052496839 4290224828
2.9290094 -0.42677423 0.1551238 4290224828
3.1181855 -0.45822942 -0.16517229 4290224828
3.0565434 -0.45026091 -0.053927936 4290224828
2.9826508 -0.44416371 0.052636456 4290224828
2.9196002 -0.43581626 0.15470509 4290224828
3.1244669 -0.47030023 -0.16559097 4290224828
3.0707717 -0.46331418 -0.054207176 4290224828
2.9968967 -0.45698383 0.052915696 4290224828
2.9259586 -0.44721195 0.1551238 4290224828
3.0691357 -0.47403035 -0.054207176 4290224828
3.0110896 -0.46990889 0.053194933 4290224828
2.9441125 -0.46050927 0.15617052 4290224828
3.0793133 -0.48661348 -0.054416601 4290224828
3.0094311 -0.48041669 0.053194933 4290224828
2.95432 -0.47267658 0.15679854 4290224828
2.8722768 -0.46006414 0.25449476 4290224828
3.0894406 -0.49927354 -0.054626033 4290224828
3.0156302 -0.49220714 0.053334557 4290224828
2.9645631 -0.48440328 0.15742657 4290224828
2.9001465 -0.4749172 0.25710943 4290224828
3.111444 -0.51342255 -0.055044889 4290224828
3.0337064 -0.50549132 0.053683605 4290224828
2.9628541 -0.49474859 0.15742657 4290224828
2.9063315 -0.48635307 0.25780669 4290224828
3.1135769 -0.52494538 -0.055114701 4290224828
3.047694 -0.51876229 0.053962842 4290224828
2.9729221 -0.50710285 0.15805461 4290224828
2.9204142 -0.49867094 0.25920117 4290224828
3.1156666 -0.53648919 -0.05518451 4290224828
3.061626 -0.53213698 0.054242078 4290224828
2.9868751 -0.52021879 0.15889199 4290224828
2.9146414 -0.5086863 0.25885254 4290224828
3.1295311 -0.55013132 -0.05546375 4290224828
3.0635929 -0.54405415 0.05431189 4290224828
3.0086381 -0.53483659 0.16014804 4290224828
2.9324634 -0.52235121 0.26059568 4290224828
3.1472745 -0.56458294 -0.055812798 4290224828
3.0775137 -0.55705982 0.05459113 4290224828
3.0186393 -0.54694712 0.16077606 4290224828
2.9463975 -0.53492004 0.26199016 4290224828
3.1611216 -0.57789344 -0.056092035 4290224828
3.0913815 -0.57016373 0.054870363 4290224828
3.0245678 -0.5589326 0.16119476 4290224828
2.9622397 -0.54794925 0.26355895 4290224828
3.1826751 -0.59332198 -0.056510892 4290224828
3.1129553 -0.58538592 0.055289224 4290224828
3.0304492 -0.57096612 0.16161345 4290224828
2.9739165 -0.56138974 0.26477915 4290224828
3.1766555 -0.60368133 -0.056441084 4290224828
3.1225722 -0.59905213 0.055498652 4290224828
3.0401044 -0.58433133 0.16224147 4290224828
2.9719386 -0.57176721 0.26477915 4290224828
3.1862006 -0.61760348 -0.056650508 4290224828
3.1243873 -0.61071557 0.055568464 4290224828
3.0615664 -0.59954572 0.16349754 4290224828
2.9855661 -0.58520371 0.26617363 4290224828
3.1938343 -0.63065851 -0.056825034 4290224828
3.1281199 -0.62278926 0.055673175 4290224828
2.9991357 -0.59874213 0.26756814 4290224828
