# .PCD v0.7 - Point Cloud Data file format
VERSION 0.7
FIELDS x y z rgb
SIZE 4 4 4 4
TYPE F F F U
COUNT 1 1 1 1
WIDTH 409
HEIGHT 1
VIEWPOINT 0 0 0 1 0 0 0
POINTS 409
DATA ascii
2.9496434 -0.3084586 -0.36414564 4292641381
2.9111052 -0.31419107 -0.35951459 4292641381
2.9257739 -0.32611001 -0.3614645 4292641381
2.914757 -0.33518693 -0.36024579 4292641381
2.9036529 -0.34469774 -0.35902712 4292641381
2.9024937 -0.35432473 -0.35902712 4292641381
2.9051785 -0.36494899 -0.35951459 4292641381
2.9019182 -0.37483343 -0.35927087 4292641381
2.8946886 -0.38417727 -0.35853964 4292641381
2.8893962 -0.39374319 -0.35805216 4292641381
2.8880041 -0.40382665 -0.35805216 4292641381
2.892472 -0.41475052 -0.35878339 4292641381
2.8949344 -0.4254218 -0.35927087 4292641381
2.8796911 -0.43345612 -0.35756469 4292641381
2.8800449 -0.44431046 -0.35780841 4292641381
2.8844383 -0.45478612 -0.35853964 4292641381
2.8808734 -0.46453589 -0.35829589 4292641381
2.8811929 -0.47491205 -0.35853964 4292641381
2.8677723 -0.48298824 -0.35707721 4292641381
2.8699818 -0.49366882 -0.35756469 4292641381
2.8701963 -0.50402725 -0.35780841 4292641381
2.8742812 -0.51509345 -0.35853964 4292641381
2.8744185 -0.52548045 -0.35878339 4292641381
2.860858 -0.53332806 -0.35732093 4292641381
2.8511779 -0.54182863 -0.35634598 4292641381
2.857065 -0.55328751 -0.35732093 4292641381
2.8590114 -0.56402552 -0.35780841 4292641381
2.8628635 -0.57517487 -0.35853964 4292641381
2.8472247 -0.58238006 -0.35683349 4292641381
2.8471177 -0.59271973 -0.35707721 4292641381
2.8489156 -0.60347724 -0.35756469 4292641381
2.8603754 -0.61634511 -0.35927087 4292641381
2.8523893 -0.62505114 -0.35853964 4292641381
2.8444879 -0.63321263 -0.35780841 4292641381
2.8403242 -0.64269978 -0.35756469 4292641381
2.8496709 -0.65527952 -0.35902712 4292641381
2.8531654 -0.66657758 -0.35975835 4292641381
2.845027 -0.67515785 -0.35902712 4292641381
2.8349335 -0.68322438 -0.35805216 4292641381
2.8267469 -0.69170052 -0.35732093 4292641381
2.8397274 -0.70539188 -0.35927087 4292641381
2.8333981 -0.7143296 -0.35878339 4292641381
2.8366568 -0.7256915 -0.35951459 4292641381
2.8187349 -0.73159927 -0.35756469 4292641381
2.816164 -0.74143416 -0.35756469 4292641381
2.8269839 -0.75484461 -0.35927087 4292641381
2.8319962 -0.76678312 -0.36024579 4292641381
2.8236949 -0.77459472 -0.35951459 4292641381
2.8190613 -0.78391474 -0.35927087 4292641381
2.8201289 -0.79482734 -0.35975835 4292641381
2.8229232 -0.80679482 -0.36048955 4292641381
2.8200896 -0.81664371 -0.36048955 4292641381
2.8191264 -0.82704151 -0.36073327 4292641381
2.8067083 -0.83404964 -0.35951459 4292641381
2.8115308 -0.84563965 -0.36048955 4292641381
2.8125093 -0.85611451 -0.36097702 4292641381
2.8189888 -0.86885005 -0.36219573 4292641381
2.8044159 -0.87562656 -0.36073327 4292641381
2.8144372 -0.89008945 -0.36243945 4292641381
2.8421469 -0.92072809 -0.36682677 4292641381
3.0084157 -0.22039634 -0.26390758 4292641381
3.0147476 -0.24203126 -0.26460484 4292641381
3.0257969 -0.25355145 -0.26565069 4292641381
3.030848 -0.26463178 -0.26617363 4292641381
3.033874 -0.2755703 -0.26652226 4292641381
3.0467784 -0.28746885 -0.26774243 4292641381
3.0636032 -0.29984906 -0.26931125 4292641381
3.0704663 -0.31134519 -0.27000847 4292641381
3.0595095 -0.32048768 -0.26913694 4292641381
3.0504489 -0.33030745 -0.26843968 4292641381
3.0611577 -0.34228188 -0.26948556 4292641381
3.065882 -0.35365012 -0.27000847 4292641381
3.0606718 -0.3638795 -0.26965985 4292641381
3.0475175 -0.37310833 -0.26861399 4292641381
3.0383558 -0.3822175 -0.26791674 4292641381
3.0389793 -0.39307654 -0.26809105 4292641381
3.0375886 -0.40368217 -0.26809105 4292641381
3.0519538 -0.41643783 -0.26948556 4292641381
3.0346966 -0.42487854 -0.26809105 4292641381
3.0292504 -0.4349027 -0.26774243 4292641381
3.0335495 -0.44687366 -0.26826537 4292641381
3.0339413 -0.45775726 -0.26843968 4292641381
3.0342941 -0.46864903 -0.26861399 4292641381
3.01296 -0.47612789 -0.26687086 4292641381
3.0113645 -0.48611665 -0.26687086 4292641381
3.0155466 -0.49759844 -0.2673938 4292641381
3.0137911 -0.50812161 -0.2673938 4292641381
3.0237803 -0.5206672 -0.26843968 4292641381
3.0023215 -0.52776951 -0.26669657 4292641381
3.0043831 -0.53894991 -0.2670452 4292641381
3.006403 -0.55015117 -0.2673938 4292641381
3.01034 -0.56173849 -0.26791674 4292641381
3.0083609 -0.57224315 -0.26791674 4292641381
2.9926534 -0.58008689 -0.26669657 4292641381
2.9886556 -0.59014368 -0.26652226 4292641381
2.998297 -0.60292917 -0.26756814 4292641381
3.0020299 -0.61459029 -0.26809105 4292641381
2.9940147 -0.62384635 -0.26756814 4292641381
2.9840226 -0.63264072 -0.26687086 4292641381
2.9837437 -0.64347309 -0.2670452 4292641381
2.9853716 -0.65473801 -0.2673938 4292641381
2.9889016 -0.66645569 -0.26791674 4292641381
2.9886186 -0.67680365 -0.26809105 4292641381
2.9745882 -0.68455076 -0.2670452 4292641381
2.9799404 -0.6967442 -0.26774243 4292641381
2.9774902 -0.70714194 -0.26774243 4292641381
2.9866252 -0.72033387 -0.26878831 4292641381
2.9860277 -0.73122865 -0.26896262 4292641381
2.9776566 -0.74020547 -0.26843968 4292641381
2.9731226 -0.75010753 -0.26826537 4292641381
2.9762766 -0.76196349 -0.26878831 4292641381
2.9735985 -0.77234799 -0.26878831 4292641381
2.9901509 -0.78779912 -0.27053142 4292641381
2.9739089 -0.79463154 -0.26931125 4292641381
2.9634247 -0.80292356 -0.26861399 4292641381
2.9663675 -0.8148461 -0.26913694 4292641381
2.9807794 -0.83000582 -0.27070573 4292641381
2.9836166 -0.84202904 -0.27122867 4292641381
2.9615033 -0.84696037 -0.26948556 4292641381
2.9547012 -0.85618371 -0.26913694 4292641381
2.9593415 -0.86873704 -0.26983419 4292641381
2.9811177 -0.88644415 -0.27210024 4292641381
2.9665589 -0.89339763 -0.27105436 4292641381
2.9559567 -0.90090674 -0.2703571 4292641381
2.9489861 -0.91004431 -0.27000847 4292641381
2.9361227 -0.9178744 -0.26913694 4292641381
2.9291017 -0.92691559 -0.26878831 4292641381
2.9182587 -0.93470353 -0.26809105 4292641381
2.8998158 -0.9399696 -0.26669657 4292641381
2.8813717 -0.94511825 -0.26530206 4292641381
2.876164 -0.95454276 -0.26512775 4292641381
2.8671484 -0.96267426 -0.26460484 4292641381
2.8562245 -0.97011364 -0.26390758 4292641381
2.8339777 -0.9736042 -0.26216447 4292641381
2.8286798 -0.9828369 -0.26199016 4292641381
2.9432092 -0.22698434 -0.15470509 4292641381
2.939563 -0.24735866 -0.15460044 4292641381
2.950619 -0.25866464 -0.15522847 4292641381
2.9656575 -0.26989594 -0.15606584 4292641381
2.9686251 -0.28114045 -0.15627518 4292641381
2.9775639 -0.29247737 -0.15679854 4292641381
2.9884999 -0.30356073 -0.15742657 4292641381
3.0033128 -0.31566089 -0.15826395 4292641381
3.0161486 -0.327126 -0.15899664 4292641381
3.0149884 -0.3376523 -0.15899664 4292641381
3.0176985 -0.34915963 -0.15920599 4292641381
3.0402601 -0.36252907 -0.16046207 4292641381
3.0509355 -0.37406728 -0.16109009 4292641381
3.0535746 -0.38521475 -0.16129944 4292641381
3.0660758 -0.39766958 -0.16203214 4292641381
3.0765474 -0.40995255 -0.16266017 4292641381
3.0909283 -0.4228549 -0.16349754 4292641381
3.1092124 -0.43641788 -0.16454425 4292641381
3.1155777 -0.44840652 -0.16496295 4292641381
3.1159689 -0.45957056 -0.16506761 4292641381
3.1280875 -0.47307879 -0.16580033 4292641381
3.1402333 -0.48613381 -0.16653302 4292641381
3.1563585 -0.49935341 -0.16747507 4292641381
3.1703691 -0.51291996 -0.16831245 4292641381
3.1547658 -0.52170241 -0.16757976 4292641381
3.1627724 -0.53437519 -0.16810311 4292641381
3.1530151 -0.54405361 -0.16768442 4292641381
3.1648657 -0.55748165 -0.16841713 4292641381
3.166832 -0.56923234 -0.16862647 4292641381
3.1510742 -0.57776177 -0.16789377 4292641381
3.1490381 -0.58875763 -0.16789377 4292641381
3.1489255 -0.60012013 -0.16799843 4292641381
3.1546543 -0.61263126 -0.16841713 4292641381
3.1485779 -0.62286413 -0.16820778 4292641381
3.132679 -0.63108993 -0.16747507 4292641381
3.1382833 -0.64362627 -0.16789377 4292641381
3.1399276 -0.65539318 -0.16810311 4292641381
3.1473892 -0.66842413 -0.16862647 4292641381
3.1391802 -0.6781413 -0.16831245 4292641381
3.1289909 -0.68738073 -0.16789377 4292641381
3.1325421 -0.69905812 -0.16820778 4292641381
3.1261873 -0.70910478 -0.16799843 4292641381
3.1314778 -0.72180736 -0.16841713 4292641381
3.1406074 -0.73546624 -0.16904517 4292641381
3.1185901 -0.74180269 -0.16799843 4292641381
3.1120992 -0.75174618 -0.16778909 4292641381
3.1152756 -0.76403207 -0.16810311 4292641381
3.1106513 -0.77441925 -0.16799843 4292641381
3.1001835 -0.78331566 -0.16757976 4292641381
3.0780835 -0.78917235 -0.16653302 4292641381
3.0579135 -0.79538709 -0.16559097 4292641381
3.0454626 -0.80350876 -0.16506761 4292641381
3.0387805 -0.81310201 -0.16485828 4292641381
3.0205033 -0.81952041 -0.1640209 4292641381
2.9946589 -0.82317978 -0.16276483 4292641381
2.9686799 -0.82719499 -0.16150878 4292641381
2.9752381 -0.84078586 -0.16203214 4292641381
2.9684448 -0.85006654 -0.1618228 4292641381
2.9654593 -0.86042321 -0.1618228 4292641381
2.9336948 -0.86232066 -0.16025271 4292641381
2.9249244 -0.87084627 -0.15993871 4292641381
2.9123058 -0.87816781 -0.15941535 4292641381
2.9055569 -0.88665456 -0.15920599 4292641381
2.8948114 -0.89443314 -0.15878731 4292641381
2.8667347 -0.89728129 -0.15742657 4292641381
2.8578732 -0.90547293 -0.15711255 4292641381
2.8470876 -0.91300362 -0.15669388 4292641381
2.8400838 -0.92170334 -0.15648453 4292641381
2.8254638 -0.92787248 -0.15585649 4292641381
2.8051491 -0.93206149 -0.15491444 4292641381
2.7905197 -0.93802941 -0.15428641 4292641381
2.7834466 -0.94647849 -0.15407708 4292641381
2.7763484 -0.95488948 -0.15386772 4292641381
2.891516 -0.26416627 -0.050681788 4292641381
2.8965485 -0.27482459 -0.050786503 4292641381
2.9194527 -0.28728375 -0.051205363 4292641381
2.9224107 -0.29787832 -0.051275171 4292641381
2.9253843 -0.3079865 -0.05134498 4292641381
2.9401953 -0.31992662 -0.05162422 4292641381
2.954958 -0.33197385 -0.05190346 4292641381
2.9617267 -0.3432073 -0.052043077 4292641381
2.9644818 -0.35401782 -0.052112885 4292641381
2.9711671 -0.36533985 -0.052252505 4292641381
2.9857447 -0.37771672 -0.052531745 4292641381
2.9963059 -0.38968399 -0.05274117 4292641381
3.0147483 -0.40278882 -0.053090218 4292641381
3.013324 -0.41330984 -0.053090218 4292641381
3.0277045 -0.42605501 -0.053369459 4292641381
3.038074 -0.43833444 -0.053578887 4292641381
3.0602639 -0.45244619 -0.053997744 4292641381
3.0665746 -0.46432328 -0.054137368 4292641381
3.0688872 -0.47563729 -0.054207176 4292641381
3.0830083 -0.48885217 -0.054486416 4292641381
3.0970745 -0.5021714 -0.054765653 4292641381
3.1071393 -0.51494068 -0.054975081 4292641381
3.1210961 -0.52845418 -0.055254318 4292641381
3.1152916 -0.53866416 -0.05518451 4292641381
3.1370232 -0.55370635 -0.055603366 4292641381
3.1468797 -0.56678003 -0.055812798 4292641381
3.1606162 -0.58065188 -0.056092035 4292641381
3.1821563 -0.59609914 -0.056510892 4292641381
3.1839843 -0.60795343 -0.0565807 4292641381
3.1936202 -0.62135541 -0.056790132 4292641381
3.1953549 -0.63327688 -0.05685994 4292641381
3.2146869 -0.6487785 -0.057243895 4292641381
3.2339492 -0.66442263 -0.057627846 4292641381
3.2081218 -0.67079592 -0.057208989 4292641381
3.1862016 -0.67782921 -0.05685994 4292641381
3.1720893 -0.68640947 -0.056650508 4292641381
3.1619835 -0.69520712 -0.056510892 4292641381
3.1478279 -0.70362288 -0.056301463 4292641381
3.1180527 -0.70840418 -0.055812798 4292641381
3.1077671 -0.71748453 -0.055673175 4292641381
3.0935628 -0.72558856 -0.05546375 4292641381
3.0871208 -0.73545587 -0.055393942 4292641381
3.0728729 -0.74340612 -0.05518451 4292641381
3.0508394 -0.749358 -0.054835461 4292641381
3.0326827 -0.75613272 -0.054556224 4292641381
3.0261476 -0.76573306 -0.054486416 4292641381
3.0195823 -0.77529693 -0.054416601 4292641381
3.0052471 -0.78280824 -0.054207176 4292641381
2.9754293 -0.78614229 -0.053718507 4292641381
2.9649408 -0.7944535 -0.053578887 4292641381
2.9545705 -0.8021853 -0.053439267 4292641381
2.9440405 -0.81037104 -0.053299651 4292641381
2.9296372 -0.81741822 -0.053090218 4292641381
2.9152207 -0.82437479 -0.052880794 4292641381
2.900646 -0.83174688 -0.052671362 4292641381
2.890044 -0.83963531 -0.052531745 4292641381
2.8755856 -0.84633082 -0.052322313 4292641381
2.8687811 -0.85522079 -0.052252505 4292641381
2.8467846 -0.85895276 -0.05190346 4292641381
2.8362706 -0.86605233 -0.051763836 4292641381
2.8255885 -0.87358499 -0.05162422 4292641381
2.8223677 -0.88393539 -0.05162422 4292641381
2.8114843 -0.89185536 -0.051484596 4292641381
2.7816987 -0.89310569 -0.050995931 4292641381
2.7709568 -0.90033847 -0.050856311 4292641381
2.7639976 -0.90875614 -0.050786503 4292641381
2.7759886 -0.92344844 -0.051065743 4292641381
2.8861361 -0.29876226 0.050646886 4292641381
2.8712108 -0.30684391 0.050402552 4292641381
2.8820481 -0.31818104 0.050611977 4292641381
2.8888674 -0.32914484 0.0507516 4292641381
2.9035292 -0.34160006 0.051030833 4292641381
2.9142919 -0.35266805 0.051240265 4292641381
2.9209807 -0.36382738 0.051379886 4292641381
2.9276264 -0.37503758 0.051519506 4292641381
2.9381955 -0.38682076 0.051728934 4292641381
2.9526806 -0.39921808 0.052008174 4292641381
2.971076 -0.41227087 0.052357223 4292641381
2.969619 -0.42263928 0.052357223 4292641381
2.9681256 -0.43300265 0.052357223 4292641381
2.9903286 -0.44690758 0.05277608 4292641381
3.0005305 -0.45968163 0.052985508 4292641381
3.0187457 -0.47272298 0.053334557 4292641381
3.0131283 -0.48262489 0.053264745 4292641381
3.0193188 -0.49443239 0.053404365 4292641381
3.0372972 -0.50826925 0.053753413 4292641381
3.0512733 -0.52156371 0.05403265 4292641381
3.0612535 -0.53427428 0.054242078 4292641381
3.0711823 -0.54706085 0.054451507 4292641381
3.0771241 -0.55920821 0.05459113 4292641381
3.0948153 -0.5735901 0.054940179 4292641381
3.1085134 -0.58735973 0.055219412 4292641381
3.1221533 -0.60123187 0.055498652 4292641381
3.1200356 -0.61212659 0.055498652 4292641381
3.1355283 -0.62654036 0.055812798 4292641381
3.1431198 -0.63947493 0.055987321 4292641381
3.1467431 -0.65165913 0.056092035 4292641381
3.1287954 -0.65934056 0.055812798 4292641381
3.1010563 -0.66480881 0.055359036 4292641381
3.0948093 -0.67477751 0.055289224 4292641381
3.0847452 -0.68330669 0.055149604 4292641381
3.0745378 -0.69231313 0.055009987 4292641381
3.0643051 -0.70125669 0.054870363 4292641381
3.0384657 -0.70651412 0.054451507 4292641381
3.020412 -0.71343851 0.05417227 4292641381
3.0179029 -0.72397733 0.05417227 4292641381
2.9998145 -0.73072124 0.05389303 4292641381
2.9972456 -0.74118811 0.05389303 4292641381
2.9752445 -0.74677771 0.053543981 4292641381
2.9571173 -0.75321013 0.053264745 4292641381
2.9467258 -0.76152647 0.053125124 4292641381
2.9324434 -0.76876515 0.052915696 4292641381
2.9220119 -0.77694118 0.05277608 4292641381
2.8999748 -0.78193021 0.052427031 4292641381
2.8896496 -0.78943461 0.052287407 4292641381
2.8791678 -0.79738164 0.052147791 4292641381
2.8725166 -0.80634606 0.052077983 4292641381
2.8618486 -0.81467897 0.051938362 4292641381
2.8359311 -0.81801325 0.051519506 4292641381
2.8253808 -0.82566398 0.051379886 4292641381
2.8109767 -0.83211559 0.051170457 4292641381
2.8042243 -0.84077418 0.051100649 4292641381
2.7975934 -0.84890723 0.051030833 4292641381
2.7756469 -0.85230982 0.050681788 4292641381
2.7610481 -0.85891348 0.05047236 4292641381
2.7540669 -0.86782551 0.050402552 4292641381
2.8704424 -0.36873063 0.15166962 4292641381
2.8750777 -0.37953219 0.15198363 4292641381
2.8856106 -0.39117554 0.15261166 4292641381
2.8960967 -0.40289703 0.1532397 4292641381
2.9104908 -0.4152607 0.15407708 4292641381
2.9248331 -0.4277297 0.15491444 4292641381
2.9272728 -0.43852848 0.1551238 4292641381
2.9257243 -0.44874394 0.1551238 4292641381
2.943871 -0.46205077 0.15617052 4292641381
2.9580162 -0.47485653 0.15700789 4292641381
2.9721076 -0.48776659 0.15784526 4292641381
2.970387 -0.49813822 0.15784526 4292641381
2.9765043 -0.50985259 0.15826395 4292641381
2.9904459 -0.52299207 0.15910132 4292641381
3.0043314 -0.53623503 0.15993871 4292641381
3.0181608 -0.54958117 0.16077606 4292641381
3.0240791 -0.56157178 0.16119476 4292641381
3.0299499 -0.57361037 0.16161345 4292641381
3.0436177 -0.5872103 0.16245082 4292641381
3.0533082 -0.60014212 0.16307886 4292641381
3.0786123 -0.61628509 0.16454425 4292641381
3.0803566 -0.62782544 0.16475362 4292641381
3.0722795 -0.63735694 0.16443959 4292641381
3.0622189 -0.64642721 0.1640209 4292641381
3.05018 -0.65501571 0.16349754 4292641381
3.0401859 -0.66342354 0.16307886 4292641381
3.0144536 -0.66884023 0.1618228 4292641381
3.0004106 -0.67672199 0.16119476 4292641381
2.9863493 -0.68451393 0.16056673 4292641381
2.976161 -0.69312197 0.16014804 4292641381
2.9620616 -0.70074761 0.15952002 4292641381
2.9479458 -0.70828331 0.15889199 4292641381
2.9260519 -0.7138356 0.15784526 4292641381
2.9157875 -0.72212452 0.15742657 4292641381
2.9171231 -0.73327196 0.15763591 4292641381
2.9068046 -0.74147552 0.15721723 4292641381
2.8809962 -0.74561268 0.15596117 4292641381
2.8629215 -0.75160754 0.1551238 4292641381
2.8564203 -0.7605685 0.15491444 4292641381
2.8538823 -0.77003658 0.15491444 4292641381
2.8434713 -0.77788568 0.15449576 4292641381
2.8137939 -0.78033412 0.15303035 4292641381
2.8033619 -0.7879895 0.15261166 4292641381
2.7966135 -0.79716408 0.15240233 4292641381
2.7861385 -0.80470425 0.15198363 4292641381
2.7909803 -0.81666857 0.15240233 4292641381
2.9223731 -0.44927409 0.25867823 4292641381
2.8759696 -0.46220034 0.25484338 4292641381
2.8959653 -0.47578964 0.25676081 4292641381
2.910006 -0.48853448 0.25815532 4292641381
2.9239931 -0.50138313 0.2595498 4292641381
2.9241874 -0.51193035 0.25972411 4292641381
2.9439573 -0.52598917 0.26164153 4292641381
2.9538639 -0.53840595 0.26268741 4292641381
2.9656785 -0.55126226 0.26390758 4292641381
2.9793963 -0.56457859 0.26530206 4292641381
2.9774075 -0.57497519 0.26530206 4292641381
2.987112 -0.58767247 0.26634794 4292641381
3.0045779 -0.60201007 0.26809105 4292641381
3.0141711 -0.61488378 0.26913694 4292641381
3.0198097 -0.62702167 0.26983419 4292641381
2.9922609 -0.63220477 0.26756814 4292641381
2.9744527 -0.63929659 0.26617363 4292641381
2.9683101 -0.64882457 0.265825 4292641381
2.9582472 -0.65745288 0.26512775 4292641381
2.9443901 -0.66462702 0.2640819 4292641381
2.9265165 -0.67133701 0.26268741 4292641381
2.9163938 -0.67973936 0.26199016 4292641381
2.9062481 -0.68807912 0.2612929 4292641381
2.8941426 -0.69589067 0.26042137 4292641381
2.883954 -0.70409876 0.25972411 4292641381
2.8563383 -0.70793045 0.25745806 4292641381
2.8461206 -0.71595234 0.25676081 4292641381
2.8320215 -0.72292608 0.25571495 4292641381
2.8449106 -0.73680353 0.25710943 4292641381
