# .PCD v0.7 - Point Cloud Data file format
VERSION 0.7
FIELDS x y z rgb
SIZE 4 4 4 4
TYPE F F F U
COUNT 1 1 1 1
WIDTH 391
HEIGHT 1
VIEWPOINT 0 0 0 1 0 0 0
POINTS 391
DATA ascii
3.1781802 -0.36885229 0.055847701 4282641439
3.2449875 -0.38292107 -0.057034463 4282641439
3.1669455 -0.37875661 0.055673175 4282641439
3.1014805 -0.37202537 0.1637069 4282641439
3.2356908 -0.39328074 -0.056894846 4282641439
3.1596501 -0.38907588 0.055568464 4282641439
3.112123 -0.38377482 0.16433492 4282641439
3.0351954 -0.37536401 0.26756814 4282641439
3.2264316 -0.40301707 -0.056755226 4282641439
3.1504068 -0.39854759 0.055428844 4282641439
3.0949135 -0.39262497 0.16349754 4282641439
3.0397959 -0.38671085 0.26809105 4282641439
3.2091379 -0.41223872 -0.056475986 4282641439
3.1390817 -0.40825266 0.055254318 4282641439
3.0737193 -0.40084311 0.16245082 4282641439
3.0246675 -0.39498314 0.26687086 4282641439
3.2375817 -0.42623574 -0.1711386 4282641439
3.1799245 -0.41977432 -0.055987321 4282641439
3.1297092 -0.41814831 0.055114701 4282641439
3.0663626 -0.41077435 0.16213681 4282641439
3.003453 -0.4034141 0.26512775 4282641439
3.2221434 -0.43622354 -0.17040588 4282641439
3.1744769 -0.43033448 -0.055917513 4282641439
3.1083448 -0.42689571 0.054765653 4282641439
3.0490081 -0.41983086 0.16129944 4282641439
2.9941316 -0.41280723 0.26443052 4282641439
3.2206008 -0.44746825 -0.17040588 4282641439
3.1570339 -0.43975961 -0.055638272 4282641439
3.0909944 -0.43551126 0.054486416 4282641439
3.0396132 -0.42935395 0.16088074 4282641439
2.9768167 -0.42154366 0.26303601 4282641439
3.2031217 -0.45701247 -0.16956852 4282641439
3.1515203 -0.45021144 -0.055568464 4282641439
3.0735445 -0.44454738 0.054207176 4282641439
3.0182533 -0.43762591 0.15983403 4282641439
2.9713838 -0.43135971 0.26268741 4282641439
3.1896493 -0.46645659 -0.16894048 4282641439
3.1439133 -0.46088913 -0.05546375 4282641439
3.0759301 -0.4558596 0.054276984 4282641439
3.0009029 -0.445811 0.15899664 4282641439
2.9579589 -0.4404867 0.26164153 4282641439
3.1780422 -0.4766629 -0.16841713 4282641439
3.1106446 -0.46710932 -0.054905269 4282641439
3.0624578 -0.46479353 0.054067552 4282641439
2.9914303 -0.45508185 0.15857796 4282641439
2.9407244 -0.44789323 0.26024702 4282641439
3.1705217 -0.48629069 -0.16810311 4282641439
3.1010897 -0.4767493 -0.054765653 4282641439
3.0371048 -0.47179714 0.053648699 4282641439
2.9858766 -0.46490654 0.15836863 4282641439
2.9194567 -0.45508677 0.25850391 4282641439
3.1609125 -0.49611619 -0.16768442 4282641439
3.087554 -0.48570666 -0.054556224 4282641439
3.02754 -0.48114035 0.053509079 4282641439
2.9803734 -0.47417787 0.15815927 4282641439
2.9178505 -0.46527484 0.25850391 4282641439
3.1374691 -0.50366449 -0.16653302 4282641439
3.0859263 -0.49594271 -0.054556224 4282641439
3.0180323 -0.48989579 0.053369459 4282641439
2.9610419 -0.48117533 0.15721723 4282641439
2.9241576 -0.47622931 0.25920117 4282641439
3.123956 -0.51212728 -0.165905 4282641439
3.0724249 -0.50423014 -0.054346792 4282641439
3.0045545 -0.4979395 0.05316003 4282641439
2.9435821 -0.48889047 0.15637985 4282641439
3.1123915 -0.5208357 -0.16538164 4282641439
3.0509248 -0.51164454 -0.053997744 4282641439
2.9949114 -0.50708896 0.05302041 4282641439
2.9379194 -0.4984943 0.15617052 4282641439
3.1006181 -0.53055537 -0.16485828 4282641439
3.0333521 -0.5195902 -0.053718507 4282641439
2.9733286 -0.51465189 0.052671362 4282641439
2.9242654 -0.50721097 0.15554248 4282641439
3.0908775 -0.54000038 -0.16443959 4282641439
3.0156693 -0.52794582 -0.053439267 4282641439
2.9596989 -0.52294004 0.052461933 4282641439
2.9185436 -0.5167191 0.15533313 4282641439
3.0614462 -0.54587793 -0.16297418 4282641439
3.0138083 -0.53846925 -0.053439267 4282641439
2.9499836 -0.53184897 0.052322313 4282641439
2.893137 -0.52264291 0.15407708 4282641439
3.1012647 -0.5630362 -0.27576074 4282641439
3.0536268 -0.55548865 -0.16266017 4282641439
3.0001068 -0.54683471 -0.053229842 4282641439
2.9481094 -0.54214317 0.052322313 4282641439
2.8834381 -0.53129101 0.15365838 4282641439
3.1051576 -0.5749464 -0.27628368 4282641439
3.0497057 -0.56578016 -0.1625555 4282641439
2.9785194 -0.55364919 -0.052880794 4282641439
2.934406 -0.55021942 0.052112885 4282641439
2.8777344 -0.54011309 0.15344904 4282641439
3.0855119 -0.58245575 -0.27471489 4282641439
3.0378997 -0.5745663 -0.16203214 4282641439
2.9688079 -0.56203538 -0.05274117 4282641439
2.9089949 -0.55544668 0.051694028 4282641439
2.8679848 -0.54865378 0.15303035 4282641439
3.0717206 -0.59096414 -0.27366903 4282641439
3.0261717 -0.58274877 -0.16150878 4282641439
2.9589739 -0.57087982 -0.052601553 4282641439
2.8991868 -0.56407005 0.051554412 4282641439
2.8621314 -0.55789739 0.152821 4282641439
3.0697439 -0.60114717 -0.27366903 4282641439
2.9966805 -0.58792526 -0.16004337 4282641439
2.9530389 -0.58043373 -0.052531745 4282641439
2.8932772 -0.57340908 0.051484596 4282641439
3.0598116 -0.6103 -0.27297178 4282641439
2.9828589 -0.59603405 -0.15941535 4282641439
2.9431512 -0.58916807 -0.052392125 4282641439
2.8873374 -0.58271378 0.051414788 4282641439
3.0439944 -0.6182012 -0.27175158 4282641439
2.9807601 -0.60644251 -0.15941535 4282641439
2.9214828 -0.59544444 -0.052043077 4282641439
2.8696156 -0.58956945 0.051135551 4282641439
3.0203557 -0.62438613 -0.26983419 4282641439
2.9708021 -0.61522353 -0.15899664 4282641439
2.9037225 -0.6023891 -0.051763836 4282641439
2.8518813 -0.59630853 0.050856311 4282641439
3.0162079 -0.63451523 -0.26965985 4282641439
2.9608192 -0.62394243 -0.15857796 4282641439
2.8977959 -0.61118954 -0.051694028 4282641439
2.8381522 -0.60326791 0.050646886 4282641439
3.0100782 -0.64420599 -0.26931125 4282641439
2.9392042 -0.62957424 -0.15753125 4282641439
2.8956447 -0.62130105 -0.051694028 4282641439
2.8321202 -0.61232603 0.050577074 4282641439
3.0039177 -0.65386164 -0.26896262 4282641439
2.9213767 -0.63642907 -0.15669388 4282641439
2.881736 -0.62884688 -0.051484596 4282641439
2.8299656 -0.62220824 0.050577074 4282641439
2.9860544 -0.6608988 -0.26756814 4282641439
2.9151247 -0.64626759 -0.15648453 4282641439
2.8600008 -0.63457066 -0.051135551 4282641439
2.9662352 -0.667382 -0.26599932 4282641439
2.9089541 -0.65556115 -0.15627518 4282641439
2.8459523 -0.642407 -0.050926123 4282641439
2.952234 -0.67506737 -0.26495346 4282641439
2.8930199 -0.66259003 -0.15554248 4282641439
2.8358963 -0.65054888 -0.050786503 4282641439
2.9401562 -0.68311399 -0.2640819 4282641439
2.8751273 -0.66906303 -0.15470509 4282641439
2.8297133 -0.65953624 -0.050716694 4282641439
2.9377537 -0.69337285 -0.2640819 4282641439
2.8649995 -0.67725718 -0.15428641 4282641439
2.9217527 -0.70037216 -0.2628617 4282641439
2.8587339 -0.68632138 -0.15407708 4282641439
2.8960598 -0.70491236 -0.26076996 4282641439
2.8389778 -0.69154322 -0.15313502 4282641439
2.9391241 -0.72518247 -0.37170154 4282641439
2.8879035 -0.71307933 -0.26024702 4282641439
2.8346074 -0.70096934 -0.15303035 4282641439
2.9307978 -0.73399067 -0.37097031 4282641439
2.8795991 -0.72170258 -0.25972411 4282641439
2.9782946 0.044186786 -0.26059568 4278282639
3.0163848 0.02369204 -0.26390758 4278282639
3.0224261 0.013188024 -0.26443052 4278282639
3.0304227 0.003172731 -0.26512775 4278282639
2.9499512 0.0020602213 -0.15460044 4278282639
3.0403774 -0.0074290587 -0.26599932 4278282639
2.9539363 -0.0077334037 -0.15480977 4278282639
3.0562718 -0.018136494 -0.2673938 4278282639
2.9658713 -0.018635362 -0.1554378 4278282639
2.9817655 -0.029144239 -0.15627518 4278282639
2.8954105 -0.029310981 -0.050542168 4278282639
3.0759928 -0.039729998 -0.26913694 4278282639
2.9956253 -0.039737806 -0.15700789 4278282639
2.9112868 -0.03963545 -0.050821409 4278282639
3.0778275 -0.050499663 -0.26931125 4278282639
3.0014591 -0.050294634 -0.1573219 4278282639
2.9271262 -0.050071105 -0.051100649 4278282639
3.0856004 -0.061401531 -0.27000847 4278282639
3.0012653 -0.060771372 -0.1573219 4278282639
2.9389393 -0.060022522 -0.051310074 4278282639
3.0893514 -0.072265096 -0.2703571 4278282639
3.0090342 -0.070911825 -0.15774059 4278282639
2.9507067 -0.070567831 -0.051519506 4278282639
3.0990529 -0.082775347 -0.27122867 4278282639
3.0247405 -0.081847072 -0.15857796 4278282639
2.9504423 -0.08086729 -0.051519506 4278282639
2.9003406 -0.084053531 0.050646886 4278282639
3.042403 -0.092953824 -0.15952002 4278282639
2.9621346 -0.091536358 -0.051728934 4278282639
2.8980308 -0.094112195 0.050611977 4278282639
3.0600252 -0.10418488 -0.16046207 4278282639
2.965812 -0.10149542 -0.051798742 4278282639
2.9096932 -0.10415109 0.050821409 4278282639
3.055671 -0.11418255 -0.16025271 4278282639
2.9894187 -0.11275186 -0.052217599 4278282639
2.9213006 -0.11477822 0.051030833 4278282639
3.0672274 -0.12533742 -0.16088074 4278282639
2.9969993 -0.12351557 -0.052357223 4278282639
2.9408612 -0.12582959 0.051379886 4278282639
3.0867243 -0.13692839 -0.16192746 4278282639
3.000545 -0.13415493 -0.052427031 4278282639
2.9563842 -0.13683397 0.051659122 4278282639
3.0942075 -0.14808416 -0.16234615 4278282639
3.0040534 -0.14482056 -0.052496839 4278282639
2.9558887 -0.14715284 0.051659122 4278282639
3.1096287 -0.15970355 -0.16318353 4278282639
3.0274937 -0.15654489 -0.052915696 4278282639
2.9633446 -0.15789554 0.051798742 4278282639
2.899847 -0.15552734 0.15219298 4278282639
3.1150348 -0.17088541 -0.16349754 4278282639
3.042902 -0.16799372 -0.053194933 4278282639
2.9707613 -0.16869204 0.051938362 4278282639
2.8972926 -0.16553482 0.1520883 4278282639
3.1204011 -0.18210697 -0.16381156 4278282639
3.0502825 -0.17908323 -0.053334557 4278282639
2.9901149 -0.18026426 0.052287407 4278282639
2.9166331 -0.17685612 0.15313502 4278282639
3.1396809 -0.19423132 -0.16485828 4278282639
3.0536301 -0.18997794 -0.053404365 4278282639
3.0014415 -0.19146444 0.052496839 4278282639
2.9279568 -0.18780303 0.15376306 4278282639
3.1589139 -0.20649245 -0.165905 4278282639
3.0649207 -0.20142274 -0.053613789 4278282639
3.0007548 -0.20194028 0.052496839 4278282639
2.9472454 -0.19885601 0.15480977 4278282639
3.1681366 -0.21820404 -0.16642836 4278282639
3.0801954 -0.2126873 -0.05389303 4278282639
3.0040579 -0.21217179 0.052566648 4278282639
2.9545021 -0.20970821 0.15522847 4278282639
3.1693876 -0.22885261 -0.16653302 4278282639
3.1033678 -0.22517446 -0.05431189 4278282639
3.0232413 -0.22413504 0.052915696 4278282639
2.9577739 -0.21980058 0.1554378 4278282639
3.1825104 -0.24097002 -0.16726573 4278282639
3.1065922 -0.23576701 -0.054381698 4278282639
3.0424187 -0.23570386 0.053264745 4278282639
2.9609714 -0.23043373 0.15564716 4278282639
3.1976223 -0.25278145 -0.16810311 4278282639
3.1137238 -0.24724273 -0.054521319 4278282639
3.0575228 -0.24761379 0.053543981 4278282639
2.9760745 -0.24206337 0.15648453 4278282639
3.2166252 -0.26558515 -0.16914983 4278282639
3.1208131 -0.25877112 -0.054660939 4278282639
3.0606251 -0.25862175 0.053613789 4278282639
2.9951124 -0.25413898 0.15753125 4278282639
3.227618 -0.27783942 -0.16977786 4278282639
3.1358292 -0.27104083 -0.054940179 4278282639
3.0636876 -0.26965442 0.053683605 4278282639
2.9982324 -0.26442066 0.15774059 4278282639
2.9233525 -0.25884524 0.25676081 4278282639
3.216682 -0.28821301 -0.1692545 4278282639
3.1588132 -0.28358379 -0.055359036 4278282639
3.0866735 -0.28199568 0.054102462 4278282639
3.0052464 -0.27561444 0.15815927 4278282639
2.9482231 -0.27142254 0.25902686 4278282639
3.2316182 -0.30035701 -0.17009188 4278282639
3.1657684 -0.29535139 -0.055498652 4278282639
3.0976148 -0.29390177 0.05431189 4278282639
3.0161958 -0.2872391 0.15878731 4278282639
2.9651575 -0.28290081 0.26059568 4278282639
3.1686988 -0.30678558 -0.055568464 4278282639
3.1144807 -0.30647516 0.054626033 4278282639
3.0350506 -0.29972869 0.15983403 4278282639
2.9601862 -0.29285711 0.26024702 4278282639
3.1795468 -0.31904247 -0.055777889 4278282639
3.1094131 -0.31693926 0.054556224 4278282639
3.0419333 -0.31113404 0.16025271 4278282639
2.9611282 -0.30339137 0.26042137 4278282639
3.1983037 -0.33220512 -0.056126937 4278282639
3.1281743 -0.32988843 0.054905269 4278282639
3.0686352 -0.3246927 0.16171812 4278282639
2.9858079 -0.31645566 0.26268741 4278282639
3.2209837 -0.34592971 -0.056545798 4278282639
3.1349554 -0.34167239 0.055044889 4278282639
3.0635123 -0.33496809 0.16150878 4278282639
2.998549 -0.32839453 0.26390758 4278282639
3.2237315 -0.35761192 -0.056615606 4278282639
3.1536157 -0.3548494 0.055393942 4278282639
3.0702629 -0.34655577 0.16192746 4278282639
3.0152023 -0.34087375 0.26547641 4278282639
3.2284241 -0.36954486 -0.056720324 4278282639
3.0849054 -0.35911843 0.16276483 4278282639
3.0258679 -0.35278106 0.26652226 4278282639
3.0325308 -0.36429167 0.26721951 4278282639
2.9338408 -0.027139517 -0.36024579 4286273636
3.0721283 -0.028954983 -0.26878831 4286273636
2.9496078 -0.037582699 -0.36219573 4286273636
2.9552279 -0.058291212 -0.36292693 4286273636
2.9312036 -0.067542024 -0.36000207 4286273636
2.9349186 -0.077878736 -0.36048955 4286273636
2.9405813 -0.088301785 -0.36122078 4286273636
3.0867958 -0.093231663 -0.27018279 4286273636
2.9422393 -0.098632306 -0.3614645 4286273636
3.0924258 -0.10420732 -0.27070573 4286273636
2.941896 -0.10838858 -0.3614645 4286273636
3.1000071 -0.11529747 -0.27140298 4286273636
2.9395163 -0.11857703 -0.36122078 4286273636
3.1055799 -0.12581879 -0.2719259 4286273636
2.9311516 -0.1284894 -0.36024579 4286273636
3.101141 -0.13648333 -0.2715773 4286273636
2.9465482 -0.13947111 -0.36219573 4286273636
3.0867147 -0.14664567 -0.2703571 4286273636
2.9361308 -0.14925173 -0.36097702 4286273636
3.0941432 -0.15782538 -0.27105436 4286273636
2.9415386 -0.15982293 -0.36170825 4286273636
3.0975523 -0.16884187 -0.27140298 4286273636
2.9290717 -0.16940215 -0.36024579 4286273636
3.1009219 -0.17988408 -0.27175158 4286273636
2.9284627 -0.17962548 -0.36024579 4286273636
3.0903323 -0.19009559 -0.27088004 4286273636
2.9297991 -0.18997508 -0.36048955 4286273636
3.0916381 -0.201011 -0.27105436 4286273636
2.9370399 -0.20074226 -0.3614645 4286273636
3.0869422 -0.21152917 -0.27070573 4286273636
2.9323978 -0.21019688 -0.36097702 4286273636
3.0961211 -0.22301905 -0.2715773 4286273636
2.9276874 -0.22013392 -0.36048955 4286273636
3.0993381 -0.2335844 -0.2719259 4286273636
2.9210041 -0.22937505 -0.35975835 4286273636
3.0985036 -0.24440166 -0.2719259 4286273636
2.9360132 -0.24086836 -0.36170825 4286273636
3.0798054 -0.2532061 -0.2703571 4286273636
2.9331768 -0.25094625 -0.3614645 4286273636
3.0769172 -0.26378486 -0.27018279 4286273636
2.9303057 -0.26100731 -0.36122078 4286273636
3.0898693 -0.27576348 -0.27140298 4286273636
2.9215171 -0.26999238 -0.36024579 4286273636
3.0849202 -0.28617939 -0.27105436 4286273636
3.0879204 -0.29678899 -0.27140298 4286273636
3.2305498 -0.31163564 -0.17009188 4286273636
2.9215367 -0.29057819 -0.36048955 4286273636
3.0789356 -0.30677593 -0.27070573 4286273636
3.2393792 -0.32390407 -0.17061524 4286273636
2.9303777 -0.30179131 -0.36170825 4286273636
3.0798278 -0.31772599 -0.27088004 4286273636
3.2342556 -0.33479831 -0.17040588 4286273636
2.9273326 -0.31180814 -0.3614645 4286273636
3.0806811 -0.32868603 -0.27105436 4286273636
2.9183335 -0.32115597 -0.36048955 4286273636
3.0874364 -0.34031072 -0.27175158 4286273636
3.2377946 -0.35802785 -0.17071991 4286273636
2.9211397 -0.33178893 -0.36097702 4286273636
3.0921686 -0.3517614 -0.27227452 4286273636
3.2365253 -0.36932766 -0.17071991 4286273636
2.9239068 -0.34244543 -0.3614645 4286273636
3.2411673 -0.38132316 -0.17103392 4286273636
2.9325476 -0.35383862 -0.36268318 4286273636
3.0718358 -0.371189 -0.27070573 4286273636
3.2417991 -0.3928749 -0.1711386 4286273636
2.9293249 -0.36382836 -0.36243945 4286273636
3.0843613 -0.38363084 -0.2719259 4286273636
2.9202256 -0.3725355 -0.3614645 4286273636
3.0948613 -0.39591187 -0.27297178 4286273636
3.2370687 -0.41467804 -0.17103392 4286273636
2.9208755 -0.38298476 -0.36170825 4286273636
3.091485 -0.40645283 -0.27279747 4286273636
2.9195209 -0.39317816 -0.36170825 4286273636
3.0722771 -0.41484216 -0.27122867 4286273636
2.9278922 -0.40523693 -0.36292693 4286273636
3.0845501 -0.42801669 -0.27244884 4286273636
2.9343209 -0.41657078 -0.36390188 4286273636
3.0889552 -0.43962336 -0.27297178 4286273636
2.9249175 -0.42617798 -0.36292693 4286273636
3.0912659 -0.45151794 -0.27332041 4286273636
2.9234118 -0.43638521 -0.36292693 4286273636
3.0955825 -0.46319023 -0.27384335 4286273636
2.9277577 -0.44748691 -0.36365816 4286273636
3.0822124 -0.47164476 -0.27279747 4286273636
2.9320617 -0.4586243 -0.36438939 4286273636
3.0805473 -0.48240083 -0.27279747 4286273636
2.926604 -0.46771827 -0.36390188 4286273636
3.0906487 -0.49504164 -0.27384335 4286273636
2.9230781 -0.47710088 -0.36365816 4286273636
3.1007874 -0.50721776 -0.2748892 4286273636
2.9213946 -0.48730144 -0.36365816 4286273636
2.9275033 -0.49882987 -0.36463311 4286273636
3.0873511 -0.52717596 -0.27401763 4286273636
2.9295666 -0.51023751 -0.36512056 4286273636
3.0972688 -0.54000294 -0.27506351 4286273636
2.9297223 -0.52080798 -0.36536431 4286273636
3.081634 -0.54836774 -0.27384335 4286273636
2.9220269 -0.52996868 -0.36463311 4286273636
2.9201591 -0.54016519 -0.36463311 4286273636
2.928009 -0.55219454 -0.36585179 4286273636
2.9242127 -0.56152689 -0.36560807 4286273636
2.9300272 -0.57325548 -0.36658302 4286273636
2.9221678 -0.58231574 -0.36585179 4286273636
2.9142811 -0.59132826 -0.36512056 4286273636
2.9258077 -0.60430819 -0.36682677 4286273636
2.9314511 -0.61615068 -0.3678017 4286273636
2.9410396 -0.62835687 -0.36926416 4286273636
2.9291289 -0.6365115 -0.36804545 4286273636
2.9268892 -0.64673227 -0.36804545 4286273636
2.9264359 -0.65789092 -0.36828917 4286273636
2.9337976 -0.67031282 -0.36950788 4286273636
2.9372411 -0.68189639 -0.37023908 4286273636
2.9348431 -0.69214511 -0.37023908 4286273636
2.9304786 -0.70192301 -0.36999539 4286273636
2.9339213 -0.71304333 -0.37072656 4286273636
