# .PCD v0.7 - Point Cloud Data file format
VERSION 0.7
FIELDS x y z rgb
SIZE 4 4 4 4
TYPE F F F U
COUNT 1 1 1 1
WIDTH 496
HEIGHT 1
VIEWPOINT 0 0 0 1 0 0 0
POINTS 496
DATA ascii
3.0079923 -0.48934373 0.053194933 4283941367
2.9648163 -0.482851 0.15742657 4283941367
2.918092 -0.4762871 0.25867823 4283941367
3.1198354 -0.51257014 -0.16569565 4283941367
3.0683024 -0.50465351 -0.054276984 4283941367
3.0024078 -0.49866065 0.053125124 4283941367
2.939471 -0.4892621 0.15617052 4283941367
3.1023605 -0.52027041 -0.16485828 4283941367
3.058634 -0.51403522 -0.054137368 4283941367
2.9927628 -0.50779992 0.052985508 4283941367
2.9298692 -0.4981806 0.15575182 4283941367
3.0946198 -0.53008485 -0.16454425 4283941367
3.0331707 -0.52064902 -0.053718507 4283941367
2.9830906 -0.51687789 0.052845888 4283941367
2.9241767 -0.50772136 0.15554248 4283941367
3.0829134 -0.53916353 -0.1640209 4283941367
3.0155771 -0.52847213 -0.053439267 4283941367
2.9576387 -0.52310836 0.052427031 4283941367
2.9145203 -0.51653141 0.1551238 4283941367
3.0829787 -0.55027258 -0.16412558 4283941367
3.0137141 -0.53899521 -0.053439267 4283941367
2.9557946 -0.53342927 0.052427031 4283941367
2.9048378 -0.52528024 0.15470509 4283941367
3.0933256 -0.5621525 -0.27506351 4283941367
3.05353 -0.55602157 -0.16266017 4283941367
3.00788 -0.54879397 -0.053369459 4283941367
2.9421146 -0.54157156 0.052217599 4283941367
2.8834381 -0.53129101 0.15365838 4283941367
3.1050572 -0.57548833 -0.27628368 4283941367
3.0437157 -0.56521833 -0.16224147 4283941367
2.9903154 -0.5558418 -0.053090218 4283941367
2.9363716 -0.55058795 0.052147791 4283941367
2.8697884 -0.53914022 0.15303035 4283941367
3.0971563 -0.58521378 -0.27576074 4283941367
3.0280876 -0.57271051 -0.16150878 4283941367
2.9687097 -0.56255352 -0.05274117 4283941367
2.9265754 -0.55933297 0.052008174 4283941367
2.8600426 -0.54765189 0.15261166 4283941367
3.0677047 -0.59074676 -0.27332041 4283941367
3.0220461 -0.5830484 -0.16129944 4283941367
2.9549475 -0.57063788 -0.052531745 4283941367
2.897027 -0.56469935 0.051519506 4283941367
2.8540957 -0.55736524 0.15240233 4283941367
3.0557435 -0.60006684 -0.27244884 4283941367
3.0120499 -0.59257865 -0.16088074 4283941367
2.9449878 -0.57991904 -0.052392125 4283941367
2.8910153 -0.57453418 0.051449694 4283941367
3.0497229 -0.60994828 -0.27210024 4283941367
2.9864631 -0.59838051 -0.15962468 4283941367
2.9390244 -0.58940911 -0.052322313 4283941367
2.8812537 -0.58253276 0.051310074 4283941367
3.0437784 -0.61926371 -0.27175158 4283941367
2.9766343 -0.60668516 -0.15920599 4283941367
2.9252977 -0.59675378 -0.052112885 4283941367
2.8714714 -0.59047306 0.051170457 4283941367
3.0357456 -0.62867272 -0.27122867 4283941367
2.966676 -0.61544907 -0.15878731 4283941367
2.9036171 -0.60289592 -0.051763836 4283941367
2.8614588 -0.59935373 0.051030833 4283941367
3.0236738 -0.63773912 -0.2703571 4283941367
2.9565837 -0.62466687 -0.15836863 4283941367
2.8896496 -0.61105192 -0.051554412 4283941367
2.8357747 -0.60483199 0.050611977 4283941367
3.0019486 -0.64411002 -0.26861399 4283941367
2.9465744 -0.63330477 -0.15794992 4283941367
2.8873906 -0.62163895 -0.051554412 4283941367
2.8219206 -0.61218333 0.050402552 4283941367
2.9977353 -0.65416002 -0.26843968 4283941367
2.9306877 -0.64060086 -0.15721723 4283941367
2.8773892 -0.63000321 -0.051414788 4283941367
2.8334358 -0.6250453 0.050646886 4283941367
2.985708 -0.66246223 -0.26756814 4283941367
2.9147859 -0.64779389 -0.15648453 4283941367
2.8674765 -0.63780481 -0.051275171 4283941367
2.9834948 -0.67235959 -0.26756814 4283941367
2.9048285 -0.65569693 -0.15606584 4283941367
2.8497415 -0.643785 -0.050995931 4283941367
2.9579427 -0.67691594 -0.26547641 4283941367
2.8987448 -0.66443372 -0.15585649 4283941367
2.8357828 -0.65104383 -0.050786503 4283941367
2.9303336 -0.68137091 -0.26321036 4283941367
2.8827913 -0.67137694 -0.1551238 4283941367
2.8257031 -0.65912163 -0.050646886 4283941367
2.9239385 -0.69118977 -0.2628617 4283941367
2.8608761 -0.67733693 -0.15407708 4283941367
2.917511 -0.70097101 -0.2625131 4283941367
2.8544903 -0.68688345 -0.15386772 4283941367
2.9218514 -0.71227056 -0.36926416 4283941367
2.9052448 -0.70929676 -0.26164153 4283941367
2.8403132 -0.69449478 -0.1532397 4283941367
2.9346364 -0.72679263 -0.37121406 4283941367
2.8890891 -0.71658278 -0.26042137 4283941367
2.8416255 -0.70586336 -0.15344904 4283941367
2.9286158 -0.73453081 -0.37072656 4283941367
2.8676264 -0.72029793 -0.25867823 4283941367
3.1663902 -0.36636385 0.055638272 4283941367
3.2551177 -0.38238844 -0.057208989 4283941367
3.1611867 -0.37638912 0.055568464 4283941367
3.105706 -0.37033299 0.16391623 4283941367
3.2419205 -0.39174137 -0.05699956 4283941367
3.1658754 -0.38759893 0.055673175 4283941367
3.1123235 -0.38214532 0.16433492 4283941367
3.0374339 -0.37348813 0.26774243 4283941367
3.2325954 -0.40206811 -0.05685994 4283941367
3.1565673 -0.3976478 0.055533558 4283941367
3.0931375 -0.39075407 0.16339287 4283941367
3.0479717 -0.38558882 0.26878831 4283941367
3.2432289 -0.41374132 -0.17134793 4283941367
3.1994357 -0.40928963 -0.056301463 4283941367
3.1492107 -0.40789324 0.055428844 4283941367
3.0877931 -0.40103427 0.16318353 4283941367
3.0209224 -0.39288548 0.26652226 4283941367
3.2397847 -0.42480007 -0.17124327 4283941367
3.1880746 -0.4191519 -0.056126937 4283941367
3.1239812 -0.41571826 0.055009987 4283941367
3.0725164 -0.40996122 0.16245082 4283941367
3.0037339 -0.40131721 0.26512775 4283941367
3.2323442 -0.43530673 -0.17092925 4283941367
3.170738 -0.42813709 -0.055847701 4283941367
3.1145856 -0.42553759 0.054870363 4283941367
3.0552366 -0.41851532 0.16161345 4283941367
2.9944191 -0.41071683 0.26443052 4283941367
3.2090418 -0.44357893 -0.16977786 4283941367
3.1652629 -0.43865344 -0.055777889 4283941367
3.0932779 -0.43363085 0.054521319 4283941367
3.0300231 -0.42584199 0.16035739 4283941367
2.9850757 -0.42005634 0.2637333 4283941367
3.2035191 -0.45421711 -0.16956852 4283941367
3.1518338 -0.44801116 -0.055568464 4283941367
3.0877869 -0.44385666 0.054451507 4283941367
3.020611 -0.43527669 0.15993871 4283941367
2.9796469 -0.42990455 0.26338464 4283941367
3.1900551 -0.46367297 -0.16894048 4283941367
3.1265049 -0.45555049 -0.055149604 4283941367
3.082262 -0.45404953 0.054381698 4283941367
3.0111697 -0.44465083 0.15952002 4283941367
2.9544766 -0.43680602 0.2612929 4283941367
3.1884172 -0.47480556 -0.16894048 4283941367
3.113029 -0.46468985 -0.054940179 4283941367
3.0490212 -0.46003249 0.053823221 4283941367
3.0095992 -0.45515907 0.15952002 4283941367
2.943084 -0.44562507 0.26042137 4283941367
3.174809 -0.48467988 -0.16831245 4283941367
3.0995276 -0.47374073 -0.054730747 4283941367
3.0433624 -0.47059351 0.053753413 4283941367
2.9921212 -0.46373957 0.15868263 4283941367
2.9276493 -0.45427054 0.25920117 4283941367
3.1434124 -0.49168313 -0.16674237 4283941367
3.0938191 -0.48447913 -0.054660939 4283941367
3.0297663 -0.47986788 0.053543981 4283941367
2.9667306 -0.47094557 0.15742657 4283941367
2.9180937 -0.46374699 0.25850391 4283941367
3.1416769 -0.5026527 -0.16674237 4283941367
3.0880737 -0.4951821 -0.05459113 4283941367
3.0241251 -0.48980138 0.053474173 4283941367
2.9611259 -0.48065856 0.15721723 4283941367
2.9203904 -0.47456935 0.25885254 4283941367
3.1320188 -0.51232648 -0.16632369 4283941367
3.0586996 -0.50142944 -0.054102462 4283941367
3.0105598 -0.49839497 0.053264745 4283941367
2.9476933 -0.488516 0.1565892 4283941367
3.1223319 -0.52193892 -0.165905 4283941367
3.0530753 -0.51090956 -0.05403265 4283941367
2.9891729 -0.50504416 0.052915696 4283941367
2.9460571 -0.49828821 0.1565892 4283941367
3.1048331 -0.52960342 -0.16506761 4283941367
3.0355952 -0.5183385 -0.053753413 4283941367
2.9795992 -0.51359504 0.05277608 4283941367
2.9324913 -0.50652921 0.15596117 4283941367
3.0794475 -0.53578824 -0.16381156 4283941367
3.0258873 -0.52755767 -0.053613789 4283941367
2.9659717 -0.52191335 0.052566648 4283941367
2.9110358 -0.51329416 0.15491444 4283941367
3.0657594 -0.5444389 -0.16318353 4283941367
3.0161524 -0.53671545 -0.053474173 4283941367
2.9641316 -0.53226334 0.052566648 4283941367
2.893501 -0.52062297 0.15407708 4283941367
3.0996966 -0.56051648 -0.27558646 4283941367
3.054014 -0.55335665 -0.16266017 4283941367
2.9906499 -0.54295403 -0.053055316 4283941367
2.9504542 -0.54044515 0.052357223 4283941367
2.8916662 -0.53072 0.15407708 4283941367
3.0977211 -0.57133299 -0.27558646 4283941367
3.054028 -0.56437677 -0.16276483 4283941367
2.9808712 -0.55193371 -0.052915696 4283941367
2.9288929 -0.54706925 0.052008174 4283941367
2.889796 -0.54081059 0.15407708 4283941367
3.0859177 -0.58030152 -0.27471489 4283941367
3.0383003 -0.57244533 -0.16203214 4283941367
2.9671369 -0.56010997 -0.052706268 4283941367
2.9112501 -0.55429745 0.051728934 4283941367
2.8761191 -0.54864907 0.15344904 4283941367
3.0799596 -0.59031975 -0.27436629 4283941367
3.0107851 -0.57815111 -0.1606714 4283941367
2.9651635 -0.57046378 -0.052706268 4283941367
2.9092975 -0.56445628 0.051728934 4283941367
2.8467386 -0.55334991 0.15198363 4283941367
3.0720139 -0.59992164 -0.27384335 4283941367
2.9969881 -0.58635622 -0.16004337 4283941367
2.9474552 -0.57773352 -0.052427031 4283941367
2.9033854 -0.57383263 0.051659122 4283941367
2.8624229 -0.56677502 0.15292569 4283941367
3.0640388 -0.6094752 -0.27332041 4283941367
2.9949229 -0.59681404 -0.16004337 4283941367
2.9297326 -0.58488661 -0.052147791 4283941367
2.8896027 -0.58159655 0.051449694 4283941367
3.0365069 -0.61502528 -0.27105436 4283941367
2.9889069 -0.60647029 -0.15983403 4283941367
2.9119964 -0.59192306 -0.05186855 4283941367
2.8640468 -0.58686256 0.051030833 4283941367
3.0245848 -0.62360919 -0.27018279 4283941367
2.9711237 -0.61366791 -0.15899664 4283941367
2.9099123 -0.60208422 -0.05186855 4283941367
2.8541505 -0.59522343 0.050891217 4283941367
3.0282395 -0.63539064 -0.27070573 4283941367
2.9494181 -0.61992711 -0.15794992 4283941367
2.9038792 -0.61141402 -0.051798742 4283941367
2.8481433 -0.60435253 0.050821409 4283941367
3.0201576 -0.64470947 -0.27018279 4283941367
2.94333 -0.6293835 -0.15774059 4283941367
2.8939059 -0.61987138 -0.051659122 4283941367
2.8381975 -0.61260307 0.050681788 4283941367
2.9964714 -0.65059775 -0.26826537 4283941367
2.9274535 -0.63668257 -0.15700789 4283941367
2.8682783 -0.62486142 -0.051240265 4283941367
2.8360417 -0.62250656 0.050681788 4283941367
2.9844546 -0.65890568 -0.2673938 4283941367
2.9271634 -0.64732867 -0.15711255 4283941367
2.8582702 -0.63313985 -0.051100649 4283941367
2.9306638 -0.47991458 -0.36463311 4282810421
3.0927455 -0.50701076 -0.27419198 4282810421
2.9231822 -0.48864844 -0.36390188 4282810421
3.0968523 -0.51879102 -0.27471489 4282810421
2.9214585 -0.49884927 -0.36390188 4282810421
3.1029704 -0.53040045 -0.27541214 4282810421
2.9275219 -0.51040787 -0.36487687 4282810421
3.0755847 -0.53677541 -0.27314609 4282810421
2.9354947 -0.52236271 -0.36609554 4282810421
3.0736923 -0.54750794 -0.27314609 4282810421
2.9277937 -0.53154248 -0.36536431 4282810421
2.9239686 -0.54139769 -0.36512056 4282810421
2.9163051 -0.54998726 -0.36438939 4282810421
2.9241147 -0.56203723 -0.36560807 4282810421
2.925931 -0.57351458 -0.36609554 4282810421
2.9355912 -0.58605623 -0.36755794 4282810421
2.9219594 -0.59341723 -0.36609554 4282810421
2.9237583 -0.60441691 -0.36658302 4282810421
2.9273508 -0.61635596 -0.36731425 4282810421
2.9328361 -0.6287455 -0.36828917 4282810421
2.9364419 -0.64024782 -0.3690204 4282810421
2.9207361 -0.64697677 -0.36731425 4282810421
2.9282577 -0.65883738 -0.36853293 4282810421
2.924005 -0.66861242 -0.36828917 4282810421
2.9351885 -0.68195975 -0.36999539 4282810421
2.9347219 -0.69265729 -0.37023908 4282810421
2.9302332 -0.70294589 -0.36999539 4282810421
3.0562863 -0.015469387 -0.2673938 4282810421
2.9398186 -0.024629142 -0.36097702 4282810421
3.0562136 -0.026137721 -0.2673938 4282810421
2.9536092 -0.03505579 -0.36268318 4282810421
3.0720353 -0.037533861 -0.26878831 4282810421
2.9633932 -0.045518029 -0.36390188 4282810421
3.077862 -0.048350915 -0.26931125 4282810421
2.9413745 -0.055963725 -0.36122078 4282810421
3.0956028 -0.059438612 -0.27088004 4282810421
2.9332342 -0.065539986 -0.36024579 4282810421
3.0993602 -0.070334323 -0.27122867 4282810421
2.938941 -0.075932302 -0.36097702 4282810421
3.0891514 -0.080352753 -0.2703571 4282810421
2.9446108 -0.086365245 -0.36170825 4282810421
3.0908434 -0.091194168 -0.27053142 4282810421
2.9442914 -0.096643336 -0.36170825 4282810421
3.0885153 -0.10191696 -0.2703571 4282810421
2.9300683 -0.10590451 -0.36000207 4282810421
3.0980959 -0.11306057 -0.27122867 4282810421
2.9336476 -0.11628896 -0.36048955 4282810421
3.1016638 -0.12403348 -0.2715773 4282810421
2.9272742 -0.12627195 -0.35975835 4282810421
3.0892689 -0.1343402 -0.27053142 4282810421
2.9426551 -0.13774262 -0.36170825 4282810421
3.0847754 -0.14547431 -0.27018279 4282810421
2.9381912 -0.14781411 -0.36122078 4282810421
3.0842488 -0.1562413 -0.27018279 4282810421
2.9297283 -0.15764275 -0.36024579 4282810421
3.1135561 -0.16807917 -0.27279747 4282810421
2.9390695 -0.16843636 -0.3614645 4282810421
3.0870922 -0.17746003 -0.27053142 4282810421
2.9325192 -0.1783331 -0.36073327 4282810421
3.0924201 -0.18859877 -0.27105436 4282810421
2.9398358 -0.18856496 -0.36170825 4282810421
3.0877664 -0.19913574 -0.27070573 4282810421
2.9252961 -0.1978879 -0.36000207 4282810421
3.0910647 -0.20964368 -0.27105436 4282810421
2.9186831 -0.20716581 -0.35927087 4282810421
3.0982633 -0.22099924 -0.27175158 4282810421
2.9199219 -0.21750009 -0.35951459 4282810421
3.1014466 -0.23211023 -0.27210024 4282810421
2.92904 -0.22846304 -0.36073327 4282810421
3.0708232 -0.2406005 -0.26948556 4282810421
2.9341187 -0.23968185 -0.3614645 4282810421
3.0878363 -0.25278121 -0.27105436 4282810421
3.2147272 -0.26429871 -0.16904517 4282810421
2.9372637 -0.24974677 -0.36195198 4282810421
3.0829647 -0.2632193 -0.27070573 4282810421
3.2158229 -0.27512789 -0.16914983 4282810421
2.9225323 -0.25877264 -0.36024579 4282810421
3.0899653 -0.27468488 -0.27140298 4282810421
3.214843 -0.28635153 -0.16914983 4282810421
2.9176579 -0.2686086 -0.35975835 4282810421
3.0949395 -0.28601924 -0.2719259 4282810421
3.2217269 -0.29887056 -0.16956852 4282810421
2.9304862 -0.28062516 -0.3614645 4282810421
3.0701227 -0.29453763 -0.26983419 4282810421
3.2365685 -0.31164607 -0.17040588 4282810421
2.9334903 -0.29073304 -0.36195198 4282810421
3.0829544 -0.30663291 -0.27105436 4282810421
3.2394922 -0.32277331 -0.17061524 4282810421
2.9344323 -0.30117372 -0.36219573 4282810421
3.0819206 -0.31685469 -0.27105436 4282810421
3.2244384 -0.33264452 -0.16988252 4282810421
2.9175711 -0.30973846 -0.36024579 4282810421
3.084758 -0.32803199 -0.27140298 4282810421
3.2312016 -0.34474546 -0.17030121 4282810421
2.9223921 -0.32057014 -0.36097702 4282810421
3.0875549 -0.33923301 -0.27175158 4282810421
3.2418902 -0.35733527 -0.17092925 4282810421
2.9291451 -0.33166263 -0.36195198 4282810421
3.0784335 -0.34911051 -0.27105436 4282810421
3.244592 -0.3691009 -0.1711386 4282810421
2.9260573 -0.34114432 -0.36170825 4282810421
3.0771961 -0.35985413 -0.27105436 4282810421
3.2373328 -0.37972641 -0.17082457 4282810421
2.9347651 -0.35202771 -0.36292693 4282810421
3.0838981 -0.37100837 -0.27175158 4282810421
3.2320902 -0.38998118 -0.17061524 4282810421
2.9197273 -0.36056671 -0.36122078 4282810421
3.0905604 -0.38221103 -0.27244884 4282810421
3.2307792 -0.40069702 -0.17061524 4282810421
2.9204204 -0.37100643 -0.3614645 4282810421
3.0892072 -0.39299679 -0.27244884 4282810421
2.9210758 -0.38145539 -0.36170825 4282810421
3.0838656 -0.40326107 -0.27210024 4282810421
2.9334986 -0.3934969 -0.36341441 4282810421
3.072566 -0.41269717 -0.27122867 4282810421
2.9340739 -0.40400508 -0.36365816 4282810421
3.0829487 -0.42505264 -0.27227452 4282810421
2.9228179 -0.41285628 -0.36243945 4282810421
3.0873647 -0.43664861 -0.27279747 4282810421
2.9193943 -0.42277178 -0.36219573 4282810421
3.0858219 -0.44742286 -0.27279747 4282810421
2.9277186 -0.43441659 -0.36341441 4282810421
3.0822706 -0.45789894 -0.27262318 4282810421
2.924222 -0.44433537 -0.36317068 4282810421
3.0884502 -0.47039291 -0.27332041 4282810421
2.9343424 -0.4568826 -0.36463311 4282810421
3.0886741 -0.48201665 -0.27349472 4282810421
2.918926 -0.46544632 -0.36292693 4282810421
3.1027124 -0.49530783 -0.2748892 4282810421
2.9133651 -0.47499362 -0.36243945 4282810421
3.1009645 -0.50613528 -0.2748892 4282810421
2.9274392 -0.48725942 -0.36438939 4282810421
3.0873873 -0.51498973 -0.27384335 4282810421
2.9277642 -0.49729687 -0.36463311 4282810421
3.0954833 -0.52689672 -0.27471489 4282810421
2.9220989 -0.50683522 -0.36414564 4282810421
3.083904 -0.53545463 -0.27384335 4282810421
2.9203117 -0.51703215 -0.36414564 4282810421
3.0780926 -0.54552084 -0.27349472 4282810421
2.9223959 -0.52792859 -0.36463311 4282810421
2.9263921 -0.53920555 -0.36536431 4282810421
2.9322958 -0.55088335 -0.36633927 4282810421
2.9284058 -0.56074232 -0.36609554 4282810421
2.9127917 -0.56830001 -0.36438939 4282810421
2.9283137 -0.58194649 -0.36658302 4282810421
2.9243186 -0.59177089 -0.36633927 4282810421
2.9339006 -0.6043781 -0.3678017 4282810421
2.9337161 -0.61502302 -0.36804545 4282810421
2.9276683 -0.62443173 -0.36755794 4282810421
2.9254708 -0.63464737 -0.36755794 4282810421
2.9232378 -0.64485532 -0.36755794 4282810421
3.0041609 0.046669632 -0.2628617 4293566223
3.0004196 0.026708705 -0.2625131 4293566223
2.9438522 0.025177546 -0.15428641 4293566223
3.0164335 0.016320564 -0.26390758 4293566223
3.0284266 0.0058147325 -0.26495346 4293566223
2.9379647 0.0046141562 -0.1539724 4293566223
3.0423751 -0.0047789551 -0.26617363 4293566223
2.9479489 -0.0056596627 -0.15449576 4293566223
2.9658864 -0.016047146 -0.1554378 4293566223
2.919507 -0.016815338 -0.050961025 4293566223
2.9777954 -0.02650659 -0.15606584 4293566223
2.9956586 -0.037123613 -0.15700789 4293566223
2.9133198 -0.037120335 -0.050856311 4293566223
2.9974995 -0.048135072 -0.15711255 4293566223
2.9251692 -0.047484234 -0.051065743 4293566223
3.001307 -0.058676086 -0.1573219 4293566223
2.9449785 -0.058089048 -0.051414788 4293566223
3.0210633 -0.069085069 -0.15836863 4293566223
2.9367614 -0.06818293 -0.051275171 4293566223
2.8946698 -0.071755245 0.050542168 4293566223
3.0347795 -0.07999853 -0.15910132 4293566223
2.9524972 -0.078860864 -0.051554412 4293566223
2.8864062 -0.081632972 0.050402552 4293566223
3.0464599 -0.090948991 -0.15972935 4293566223
2.9601991 -0.08940801 -0.051694028 4293566223
2.8940983 -0.091961943 0.050542168 4293566223
3.0421317 -0.10144944 -0.15952002 4293566223
2.979872 -0.099893868 -0.052043077 4293566223
2.9117637 -0.10218985 0.050856311 4293566223
3.0537541 -0.11197607 -0.16014804 4293566223
2.9994884 -0.11103468 -0.052392125 4293566223
2.9273748 -0.11297008 0.051135551 4293566223
3.0653183 -0.1231159 -0.16077606 4293566223
2.9910905 -0.12118039 -0.052252505 4293566223
2.9429462 -0.12386052 0.051414788 4293566223
3.0907862 -0.13548711 -0.16213681 4293566223
2.9986401 -0.13197219 -0.052392125 4293566223
2.9384773 -0.13446333 0.05134498 4293566223
3.0942845 -0.14646402 -0.16234615 4293566223
3.0181108 -0.14391431 -0.05274117 4293566223
2.9459789 -0.14511321 0.051484596 4293566223
3.0957215 -0.15790588 -0.16245082 4293566223
3.0335665 -0.15526633 -0.05302041 4293566223
2.9654236 -0.15644926 0.051833645 4293566223
2.889956 -0.15347937 0.15166962 4293566223
3.1011639 -0.16849586 -0.16276483 4293566223
3.040993 -0.16629127 -0.05316003 4293566223
2.9768386 -0.16747351 0.052043077 4293566223
2.8993728 -0.16413066 0.15219298 4293566223
3.1264777 -0.18081906 -0.16412558 4293566223
3.0364013 -0.17667298 -0.053090218 4293566223
2.9842207 -0.17834076 0.052182697 4293566223
2.9187496 -0.17493935 0.1532397 4293566223
3.1397822 -0.19258736 -0.16485828 4293566223
3.0477743 -0.18747774 -0.053299651 4293566223
2.983613 -0.18823582 0.052182697 4293566223
2.934067 -0.18613826 0.15407708 4293566223
3.1590571 -0.20428705 -0.165905 4293566223
3.0670559 -0.19941273 -0.053648699 4293566223
2.994909 -0.19944666 0.052392125 4293566223
2.9453905 -0.1966653 0.15470509 4293566223
3.158325 -0.21531299 -0.165905 4293566223
3.0863285 -0.21094592 -0.053997744 4293566223
3.01019 -0.21049297 0.052671362 4293566223
2.9486706 -0.20722549 0.15491444 4293566223
3.1655624 -0.22635497 -0.16632369 4293566223
3.1015296 -0.22286452 -0.054276984 4293566223
3.0293798 -0.22246374 0.05302041 4293566223
2.9558969 -0.2181049 0.15533313 4293566223
3.182678 -0.23874813 -0.16726573 4293566223
3.1007328 -0.23368952 -0.054276984 4293566223
3.0365603 -0.23365059 0.05316003 4293566223
2.9670656 -0.22934511 0.15596117 4293566223
3.2016923 -0.25197867 -0.16831245 4293566223
3.1118593 -0.24545513 -0.054486416 4293566223
3.03967 -0.24510004 0.053229842 4293566223
2.9821727 -0.24098766 0.15679854 4293566223
3.1229413 -0.25730124 -0.054695841 4293566223
3.0527892 -0.25634986 0.053474173 4293566223
2.9972351 -0.25273848 0.15763591 4293566223
2.9441776 -0.24929954 0.25850391 4293566223
3.1459324 -0.27025464 -0.055114701 4293566223
3.0678127 -0.26839882 0.053753413 4293566223
2.9963346 -0.26319924 0.15763591 4293566223
3.1529369 -0.28194678 -0.055254318 4293566223
3.0907545 -0.28128067 0.05417227 4293566223
3.0033536 -0.27438366 0.15805461 4293566223
2.9423654 -0.26984754 0.25850391 4293566223
3.1519334 -0.29295087 -0.055254318 4293566223
3.0936844 -0.29298404 0.054242078 4293566223
3.0143073 -0.28599757 0.15868263 4293566223
2.9493394 -0.28087223 0.25920117 4293566223
3.166815 -0.30548745 -0.055533558 4293566223
3.1046367 -0.30441228 0.054451507 4293566223
3.0331674 -0.29847366 0.15972935 4293566223
2.9562719 -0.29194885 0.25989842 4293566223
3.1896067 -0.31892735 -0.055952415 4293566223
3.1115134 -0.31605598 0.05459113 4293566223
3.0480027 -0.31067976 0.16056673 4293566223
2.9711442 -0.30336964 0.2612929 4293566223
3.2004087 -0.33129463 -0.056161843 4293566223
3.1223233 -0.32816941 0.054800555 4293566223
3.0508718 -0.32173634 0.16077606 4293566223
2.985918 -0.31541339 0.26268741 4293566223
3.219116 -0.34459251 -0.056510892 4293566223
3.1450145 -0.34165791 0.055219412 4293566223
3.0616434 -0.33368227 0.1614041 4293566223
2.9927211 -0.32669914 0.26338464 4293566223
3.2198811 -0.356047 -0.056545798 4293566223
3.1597009 -0.3544172 0.055498652 4293566223
3.0763378 -0.34615397 0.16224147 4293566223
2.9994824 -0.33803624 0.2640819 4293566223
3.2265658 -0.36819118 -0.056685418 4293566223
3.093029 -0.3584227 0.16318353 4293566223
3.0160954 -0.35057458 0.26565069 4293566223
3.0287642 -0.36223057 0.26687086 4293566223
