# .PCD v0.7 - Point Cloud Data file format
VERSION 0.7
FIELDS x y z intensity
SIZE 4 4 4 4
TYPE F F F F
COUNT 1 1 1 1
WIDTH 127
HEIGHT 1
VIEWPOINT 0 0 0 1 0 0 0
POINTS 127
DATA ascii
3.2340963 -0.38045129 -0.036712036 100
3.2297137 -0.38046163 -0.029995844 100
3.2253311 -0.38047197 -0.023279652 100
3.2209487 -0.38048235 -0.01656346 100
3.2165661 -0.38049269 -0.0098472694 100
3.2121837 -0.38050303 -0.0031310767 100
3.2078011 -0.3805134 0.0035851162 100
3.2034187 -0.38052374 0.010301307 100
3.1990361 -0.38053408 0.017017497 100
3.1946535 -0.38054445 0.023733687 100
3.1902711 -0.3805548 0.030449877 100
3.1858885 -0.38056517 0.037166066 100
3.1815062 -0.38057551 0.043882258 100
3.1771235 -0.38058585 0.050598454 100
3.1727412 -0.38059622 0.057314649 100
3.1683586 -0.38060656 0.064030841 100
3.163976 -0.3806169 0.07074704 100
3.1595936 -0.38062727 0.077463232 100
3.155211 -0.38063762 0.084179431 100
3.1508286 -0.38064796 0.090895623 100
3.146446 -0.38065833 0.097611822 100
3.1420636 -0.38066867 0.10432801 100
3.137681 -0.38067904 0.11104421 100
3.1332984 -0.38068938 0.1177604 100
3.128916 -0.38069972 0.1244766 100
3.1245334 -0.3807101 0.1311928 100
3.120151 -0.38072044 0.13790898 100
3.1157684 -0.38073078 0.14462517 100
3.1113861 -0.38074115 0.15134135 100
3.1070035 -0.38075149 0.15805754 100
3.1026211 -0.38076183 0.16477372 100
3.0982385 -0.3807722 0.17148991 100
3.0938559 -0.38078254 0.1782061 100
3.0894735 -0.38079292 0.18492228 100
3.0850909 -0.38080326 0.19163847 100
3.0807085 -0.3808136 0.19835465 100
3.0763259 -0.38082397 0.20507084 100
3.0719435 -0.38083431 0.21178702 100
3.0675609 -0.38084465 0.21850321 100
3.0631785 -0.38085502 0.2252194 100
3.0587959 -0.38086537 0.23193558 100
2.9427211 -0.71995747 -0.35667944 100
2.9482937 -0.71467942 -0.35330874 100
2.9538662 -0.70940137 -0.34993804 100
2.9594388 -0.70412332 -0.34656733 100
2.9650114 -0.69884533 -0.34319663 100
2.9705839 -0.69356728 -0.33982596 100
2.9761565 -0.68828923 -0.33645526 100
2.981729 -0.68301117 -0.33308455 100
2.9873016 -0.67773312 -0.32971385 100
2.9928741 -0.67245507 -0.32634318 100
2.9984467 -0.66717708 -0.32297248 100
3.0040193 -0.66189903 -0.31960177 100
3.0095918 -0.65662098 -0.31623107 100
3.0151641 -0.65134293 -0.31286037 100
3.0207367 -0.64606488 -0.30948967 100
3.0263093 -0.64078683 -0.30611899 100
3.0318818 -0.63550884 -0.30274829 100
3.0374544 -0.63023078 -0.29937759 100
3.0430269 -0.62495273 -0.29600689 100
3.0485995 -0.61967468 -0.29263619 100
3.054172 -0.61439663 -0.28926548 100
3.0597446 -0.60911858 -0.28589478 100
3.0653172 -0.60384053 -0.28252411 100
3.0708897 -0.59856248 -0.27915341 100
3.0764623 -0.59328449 -0.2757827 100
3.0820348 -0.58800644 -0.272412 100
3.0876074 -0.58272839 -0.2690413 100
3.0931799 -0.57745034 -0.26567063 100
3.0987525 -0.57217228 -0.26229993 100
3.1043251 -0.56689429 -0.25892922 100
3.1098976 -0.56161624 -0.25555855 100
3.1154702 -0.55633819 -0.25218785 100
3.1210427 -0.55106014 -0.24881715 100
3.126615 -0.54578215 -0.24544646 100
3.1321876 -0.5405041 -0.24207576 100
3.1377602 -0.53522605 -0.23870507 100
3.1433327 -0.529948 -0.23533438 100
3.1489053 -0.52467 -0.23196368 100
3.1544778 -0.51939195 -0.22859299 100
3.1600504 -0.5141139 -0.2252223 100
3.1656229 -0.50883585 -0.2218516 100
3.1711955 -0.50355786 -0.21848091 100
3.1767681 -0.49827981 -0.21511021 100
3.1823406 -0.49300179 -0.21173953 100
3.1879132 -0.48772374 -0.20836884 100
3.1934857 -0.48244572 -0.20499814 100
3.1990581 -0.47716767 -0.20162745 100
3.2046306 -0.47188964 -0.19825675 100
3.2102032 -0.46661159 -0.19488606 100
3.2157757 -0.46133357 -0.19151537 100
3.2561278 -0.31371042 -0.16721208 100
3.2508111 -0.30588037 -0.17044041 100
3.2454944 -0.29805031 -0.17366873 100
3.2401774 -0.29022023 -0.17689705 100
3.2348607 -0.28239018 -0.18012537 100
3.2295439 -0.27456012 -0.18335369 100
3.2242272 -0.26673007 -0.18658201 100
3.2189105 -0.25889999 -0.18981034 100
3.2135937 -0.25106993 -0.19303866 100
3.2082767 -0.24323988 -0.19626698 100
3.20296 -0.23540983 -0.1994953 100
3.1976433 -0.22757977 -0.20272362 100
3.1923265 -0.2197497 -0.20595194 100
3.1870098 -0.21191965 -0.20918027 100
3.1816931 -0.20408958 -0.21240859 100
3.1763761 -0.19625951 -0.21563691 100
3.1710594 -0.18842945 -0.21886523 100
3.1657426 -0.18059939 -0.22209355 100
3.1604259 -0.17276932 -0.22532187 100
3.1551092 -0.16493925 -0.2285502 100
3.1497922 -0.1571092 -0.23177853 100
3.1444755 -0.14927913 -0.23500685 100
3.1391587 -0.14144906 -0.23823518 100
3.133842 -0.133619 -0.2414635 100
3.1285253 -0.12578894 -0.24469182 100
3.1232083 -0.11795887 -0.24792014 100
3.1178916 -0.11012882 -0.25114846 100
3.1125748 -0.10229877 -0.25437677 100
3.1072581 -0.094468713 -0.25760511 100
3.1019413 -0.086638659 -0.26083341 100
3.0966246 -0.078808613 -0.26406172 100
3.0913079 -0.07097856 -0.26729006 100
3.0859909 -0.063148506 -0.27051836 100
3.0806742 -0.055318452 -0.2737467 100
3.0753574 -0.047488399 -0.27697501 100
3.0700407 -0.039658345 -0.28020331 100
