# .PCD v0.7 - Point Cloud Data file format
VERSION 0.7
FIELDS x y z intensity
SIZE 4 4 4 4
TYPE F F F F
COUNT 1 1 1 1
WIDTH 146
HEIGHT 1
VIEWPOINT 0 0 0 1 0 0 0
POINTS 146
DATA ascii
2.9271381 -0.73583072 -0.36655062 100
2.9327376 -0.73042697 -0.36309373 100
2.9383371 -0.72502315 -0.35963684 100
2.9439368 -0.71961939 -0.35617995 100
2.9495363 -0.71421558 -0.35272309 100
2.9551361 -0.70881182 -0.3492662 100
2.9607356 -0.703408 -0.34580931 100
2.9663351 -0.69800425 -0.34235242 100
2.9719348 -0.69260043 -0.33889556 100
2.9775343 -0.68719667 -0.33543867 100
2.9831338 -0.68179286 -0.33198178 100
2.9887335 -0.6763891 -0.32852489 100
2.994333 -0.67098528 -0.32506803 100
2.9999328 -0.66558152 -0.32161114 100
3.0055323 -0.66017771 -0.31815425 100
3.0111318 -0.65477395 -0.31469736 100
3.0167315 -0.64937013 -0.31124046 100
3.022331 -0.64396638 -0.30778357 100
3.0279307 -0.63856256 -0.30432671 100
3.0335302 -0.63315874 -0.30086982 100
3.0391297 -0.62775499 -0.29741293 100
3.0447295 -0.62235117 -0.29395604 100
3.050329 -0.61694741 -0.29049915 100
3.0559287 -0.6115436 -0.28704226 100
3.0615282 -0.60613984 -0.2835854 100
3.0671277 -0.60073602 -0.28012851 100
3.0727274 -0.59533226 -0.27667162 100
3.0783269 -0.58992845 -0.27321473 100
3.0839264 -0.58452469 -0.26975787 100
3.0895262 -0.57912093 -0.26630098 100
3.0951257 -0.57371712 -0.26284409 100
3.1007252 -0.56831336 -0.25938722 100
3.1063249 -0.56290954 -0.25593033 100
3.1119244 -0.55750579 -0.25247344 100
3.1175241 -0.55210197 -0.24901657 100
3.1231236 -0.54669821 -0.24555969 100
3.1287231 -0.54129446 -0.24210282 100
3.1343229 -0.53589064 -0.23864594 100
3.1399224 -0.53048688 -0.23518905 100
3.1455219 -0.52508307 -0.23173217 100
3.1511216 -0.51967931 -0.2282753 100
3.1567211 -0.51427555 -0.22481841 100
3.1623206 -0.50887173 -0.22136153 100
3.1679204 -0.50346798 -0.21790466 100
3.1735198 -0.49806419 -0.21444777 100
3.1791196 -0.4926604 -0.21099089 100
3.1847191 -0.48725662 -0.20753402 100
3.1903186 -0.48185283 -0.20407712 100
3.1959183 -0.47644904 -0.20062025 100
3.2015178 -0.47104526 -0.19716337 100
3.2071173 -0.4656415 -0.19370648 100
3.2127171 -0.46023771 -0.19024961 100
3.2183166 -0.45483392 -0.18679273 100
3.2239161 -0.44943014 -0.18333584 100
3.2523446 -0.37848017 -0.067648508 100
3.2479489 -0.37846127 -0.060752846 100
3.2435532 -0.37844238 -0.053857185 100
3.2391574 -0.37842345 -0.04696152 100
3.2347617 -0.37840456 -0.040065859 100
3.230366 -0.37838566 -0.033170193 100
3.2259703 -0.37836674 -0.026274528 100
3.2215745 -0.37834784 -0.019378865 100
3.2171786 -0.37832895 -0.012483204 100
3.2127829 -0.37831002 -0.005587542 100
3.2083871 -0.37829113 0.0013081203 100
3.2039914 -0.37827224 0.0082037821 100
3.1995957 -0.37825331 0.015099444 100
3.1952 -0.37823442 0.021995112 100
3.1908042 -0.37821552 0.028890779 100
3.1864085 -0.3781966 0.035786446 100
3.1820126 -0.3781777 0.042682115 100
3.1776168 -0.37815881 0.04957778 100
3.1732211 -0.37813988 0.056473449 100
3.1688254 -0.37812099 0.063369118 100
3.1644297 -0.37810209 0.070264779 100
3.1600339 -0.3780832 0.077160448 100
3.1556382 -0.37806427 0.084056117 100
3.1512423 -0.37804538 0.090951785 100
3.1468465 -0.37802649 0.097847454 100
3.1424508 -0.37800756 0.10474312 100
3.1380551 -0.37798867 0.11163878 100
3.1336594 -0.37796977 0.11853443 100
3.1292636 -0.37795085 0.12543009 100
3.1248679 -0.37793195 0.13232575 100
3.1204722 -0.37791306 0.1392214 100
3.1160765 -0.37789413 0.14611706 100
3.1116805 -0.37787524 0.15301272 100
3.1072848 -0.37785634 0.15990837 100
3.1028891 -0.37783742 0.16680403 100
3.0984933 -0.37781852 0.17369969 100
3.0940976 -0.37779963 0.18059534 100
3.0897019 -0.37778071 0.187491 100
3.0853062 -0.37776181 0.19438666 100
3.0809104 -0.37774292 0.20128232 100
3.0765147 -0.37772399 0.20817797 100
3.0721188 -0.3777051 0.21507363 100
3.067723 -0.3776862 0.22196929 100
3.0633273 -0.37766728 0.22886494 100
3.2643714 -0.33083671 -0.15826721 100
3.2599318 -0.32437474 -0.16099535 100
3.2554922 -0.31791276 -0.1637235 100
3.2510526 -0.31145078 -0.16645165 100
3.246613 -0.30498877 -0.16917978 100
3.2421732 -0.29852679 -0.17190793 100
3.2377336 -0.29206482 -0.17463607 100
3.233294 -0.28560284 -0.17736422 100
3.2288544 -0.27914086 -0.18009235 100
3.2244148 -0.27267888 -0.1828205 100
3.219975 -0.2662169 -0.18554863 100
3.2155354 -0.25975493 -0.18827678 100
3.2110958 -0.25329292 -0.19100492 100
3.2066562 -0.24683094 -0.19373307 100
3.2022164 -0.24036896 -0.19646122 100
3.1977768 -0.23390697 -0.19918935 100
3.1933372 -0.22744499 -0.2019175 100
3.1888976 -0.220983 -0.20464565 100
3.184458 -0.21452102 -0.20737378 100
3.1800182 -0.20805903 -0.21010193 100
3.1755786 -0.20159705 -0.21283008 100
3.171139 -0.19513506 -0.21555822 100
3.1666994 -0.18867308 -0.21828637 100
3.1622596 -0.18221109 -0.22101451 100
3.15782 -0.17574911 -0.22374265 100
3.1533804 -0.16928712 -0.2264708 100
3.1489408 -0.16282514 -0.22919893 100
3.1445012 -0.15636317 -0.23192708 100
3.1400614 -0.1499012 -0.23465522 100
3.1356218 -0.14343922 -0.23738335 100
3.1311822 -0.13697724 -0.2401115 100
3.1267426 -0.13051526 -0.24283963 100
3.1223028 -0.12405328 -0.24556778 100
3.1178632 -0.11759131 -0.24829592 100
3.1134236 -0.11112934 -0.25102407 100
3.108984 -0.10466736 -0.2537522 100
3.1045444 -0.098205388 -0.25648034 100
3.1001046 -0.09174341 -0.25920847 100
3.095665 -0.085281432 -0.2619366 100
3.0912254 -0.078819454 -0.26466477 100
3.0867858 -0.072357483 -0.2673929 100
3.0823462 -0.065895505 -0.27012104 100
3.0779064 -0.059433527 -0.27284917 100
3.0734668 -0.052971553 -0.27557731 100
3.0690272 -0.046509575 -0.27830547 100
3.0645876 -0.040047601 -0.28103361 100
3.060148 -0.033585623 -0.28376174 100
3.0557082 -0.027123649 -0.28648987 100
