# .PCD v0.7 - Point Cloud Data file format
VERSION 0.7
FIELDS x y z intensity
SIZE 4 4 4 4
TYPE F F F F
COUNT 1 1 1 1
WIDTH 150
HEIGHT 1
VIEWPOINT 0 0 0 1 0 0 0
POINTS 150
DATA ascii
2.9218705 -0.73509812 -0.36841503 100
2.927547 -0.72978389 -0.36493531 100
2.9332232 -0.72446966 -0.36145559 100
2.9388998 -0.71915549 -0.35797584 100
2.944576 -0.71384126 -0.35449612 100
2.9502525 -0.70852703 -0.3510164 100
2.9559288 -0.7032128 -0.34753665 100
2.9616053 -0.69789863 -0.34405693 100
2.9672816 -0.6925844 -0.34057721 100
2.9729581 -0.68727016 -0.33709747 100
2.9786344 -0.68195599 -0.33361775 100
2.9843109 -0.67664176 -0.33013803 100
2.9899871 -0.67132753 -0.32665828 100
2.9956636 -0.66601336 -0.32317856 100
3.0013399 -0.66069913 -0.31969884 100
3.0070164 -0.6553849 -0.31621909 100
3.0126927 -0.65007067 -0.31273937 100
3.0183692 -0.6447565 -0.30925962 100
3.0240455 -0.63944227 -0.3057799 100
3.029722 -0.63412803 -0.30230018 100
3.0353985 -0.6288138 -0.29882044 100
3.0410748 -0.62349963 -0.29534072 100
3.0467513 -0.6181854 -0.29186097 100
3.0524275 -0.61287117 -0.28838125 100
3.058104 -0.60755694 -0.28490153 100
3.0637803 -0.60224277 -0.28142178 100
3.0694568 -0.59692854 -0.27794206 100
3.0751331 -0.59161431 -0.27446234 100
3.0808096 -0.58630013 -0.27098262 100
3.0864859 -0.5809859 -0.26750287 100
3.0921624 -0.57567167 -0.26402315 100
3.0978386 -0.5703575 -0.26054344 100
3.1035151 -0.56504327 -0.25706372 100
3.1091914 -0.5597291 -0.25358397 100
3.1148679 -0.55441487 -0.25010425 100
3.1205442 -0.54910064 -0.24662453 100
3.1262207 -0.54378647 -0.24314481 100
3.131897 -0.53847224 -0.23966508 100
3.1375735 -0.53315806 -0.23618536 100
3.1432498 -0.52784383 -0.23270562 100
3.1489263 -0.5225296 -0.2292259 100
3.1546025 -0.51721543 -0.22574617 100
3.160279 -0.5119012 -0.22226645 100
3.1659553 -0.50658697 -0.21878672 100
3.1716318 -0.5012728 -0.215307 100
3.1773081 -0.49595857 -0.21182728 100
3.1829846 -0.49064437 -0.20834754 100
3.1886609 -0.48533016 -0.20486782 100
3.1943374 -0.48001596 -0.20138809 100
3.2000136 -0.47470173 -0.19790837 100
3.2056901 -0.46938753 -0.19442864 100
3.2113664 -0.46407333 -0.19094892 100
3.2170427 -0.45875913 -0.18746918 100
3.2227192 -0.4534449 -0.18398947 100
3.2283955 -0.4481307 -0.18050973 100
3.2544045 -0.38221401 -0.068185061 100
3.2499866 -0.38221124 -0.061296903 100
3.2455688 -0.38220847 -0.054408744 100
3.2411509 -0.38220569 -0.047520589 100
3.236733 -0.38220292 -0.040632434 100
3.2323151 -0.38220015 -0.033744276 100
3.2278974 -0.38219735 -0.026856117 100
3.2234795 -0.38219458 -0.019967962 100
3.2190616 -0.38219181 -0.013079807 100
3.2146437 -0.38218904 -0.0061916523 100
3.2102258 -0.38218626 0.00069650298 100
3.2058079 -0.38218349 0.007584658 100
3.20139 -0.38218072 0.014472813 100
3.1969724 -0.38217795 0.021360973 100
3.1925545 -0.38217518 0.028249133 100
3.1881366 -0.38217241 0.035137292 100
3.1837187 -0.38216963 0.042025454 100
3.1793008 -0.38216683 0.048913613 100
3.1748829 -0.38216406 0.055801775 100
3.1704652 -0.38216129 0.062689938 100
3.1660473 -0.38215852 0.069578096 100
3.1616294 -0.38215575 0.076466255 100
3.1572115 -0.38215297 0.083354414 100
3.1527936 -0.3821502 0.090242572 100
3.1483757 -0.38214743 0.097130738 100
3.1439579 -0.38214466 0.1040189 100
3.1395402 -0.38214189 0.11090705 100
3.1351223 -0.38213912 0.1177952 100
3.1307044 -0.38213632 0.12468334 100
3.1262865 -0.38213354 0.1315715 100
3.1218686 -0.38213077 0.13845965 100
3.1174507 -0.382128 0.14534779 100
3.1130331 -0.38212523 0.15223594 100
3.1086152 -0.38212246 0.15912409 100
3.1041973 -0.38211969 0.16601224 100
3.0997794 -0.38211691 0.17290039 100
3.0953615 -0.38211414 0.17978854 100
3.0909438 -0.38211137 0.1866767 100
3.0865259 -0.3821086 0.19356485 100
3.082108 -0.38210583 0.200453 100
3.0776901 -0.38210303 0.20734115 100
3.0732722 -0.38210025 0.2142293 100
3.0688543 -0.38209748 0.22111745 100
3.0644367 -0.38209471 0.22800559 100
3.0600188 -0.38209194 0.23489374 100
3.2611663 -0.32623684 -0.16063498 100
3.2567475 -0.31965673 -0.16336888 100
3.2523289 -0.31307659 -0.16610277 100
3.24791 -0.30649647 -0.16883665 100
3.2434914 -0.29991636 -0.17157055 100
3.2390728 -0.29333621 -0.17430444 100
3.2346539 -0.2867561 -0.17703833 100
3.2302353 -0.28017598 -0.17977223 100
3.2258165 -0.27359587 -0.18250611 100
3.2213979 -0.26701573 -0.18524 100
3.216979 -0.26043561 -0.1879739 100
3.2125604 -0.2538555 -0.19070779 100
3.2081418 -0.24727538 -0.19344167 100
3.203723 -0.24069525 -0.19617558 100
3.1993043 -0.23411512 -0.19890946 100
3.1948855 -0.22753499 -0.20164336 100
3.1904669 -0.22095487 -0.20437725 100
3.186048 -0.21437475 -0.20711114 100
3.1816294 -0.20779462 -0.20984504 100
3.1772106 -0.20121449 -0.21257892 100
3.172792 -0.19463436 -0.21531282 100
3.1683733 -0.18805423 -0.21804671 100
3.1639545 -0.18147412 -0.22078061 100
3.1595359 -0.17489399 -0.2235145 100
3.155117 -0.16831386 -0.2262484 100
3.1506984 -0.16173373 -0.22898228 100
3.1462796 -0.15515362 -0.23171617 100
3.141861 -0.1485735 -0.23445006 100
3.1374424 -0.14199339 -0.23718396 100
3.1330235 -0.13541327 -0.23991784 100
3.1286049 -0.12883316 -0.24265173 100
3.124186 -0.12225304 -0.24538562 100
3.1197674 -0.11567292 -0.2481195 100
3.1153488 -0.1090928 -0.25085339 100
3.11093 -0.10251269 -0.25358728 100
3.1065114 -0.095932573 -0.25632116 100
3.1020925 -0.089352459 -0.25905505 100
3.0976739 -0.082772337 -0.26178896 100
3.093255 -0.076192223 -0.26452285 100
3.0888364 -0.069612108 -0.26725674 100
3.0844178 -0.063031994 -0.26999062 100
3.079999 -0.056451876 -0.27272451 100
3.0755804 -0.049871758 -0.2754584 100
3.0711615 -0.043291643 -0.27819228 100
3.0667429 -0.036711525 -0.28092617 100
3.0623243 -0.030131409 -0.28366005 100
3.0579054 -0.023551293 -0.28639394 100
3.0534868 -0.016971176 -0.28912783 100
3.049068 -0.01039106 -0.29186171 100
3.0446494 -0.0038109438 -0.29459563 100
