# .PCD v0.7 - Point Cloud Data file format
VERSION 0.7
FIELDS x y z intensity
SIZE 4 4 4 4
TYPE F F F F
COUNT 1 1 1 1
WIDTH 146
HEIGHT 1
VIEWPOINT 0 0 0 1 0 0 0
POINTS 146
DATA ascii
2.9235792 -0.73667532 -0.36619264 100
2.9292512 -0.7313413 -0.36288455 100
2.9349232 -0.72600728 -0.35957649 100
2.9405951 -0.72067326 -0.35626844 100
2.9462671 -0.71533924 -0.35296035 100
2.9519391 -0.71000522 -0.34965229 100
2.9576111 -0.7046712 -0.3463442 100
2.9632831 -0.69933712 -0.34303614 100
2.968955 -0.69400311 -0.33972809 100
2.974627 -0.68866909 -0.33642003 100
2.980299 -0.68333507 -0.33311194 100
2.985971 -0.67800105 -0.32980388 100
2.991643 -0.67266703 -0.32649583 100
2.9973149 -0.66733301 -0.32318774 100
3.0029869 -0.66199899 -0.31987968 100
3.0086589 -0.65666497 -0.31657159 100
3.0143309 -0.65133095 -0.31326354 100
3.0200028 -0.64599693 -0.30995545 100
3.0256748 -0.64066291 -0.30664739 100
3.0313468 -0.63532889 -0.30333933 100
3.0370188 -0.62999487 -0.30003124 100
3.0426908 -0.62466079 -0.29672319 100
3.0483627 -0.61932677 -0.2934151 100
3.0540347 -0.61399275 -0.29010704 100
3.0597067 -0.60865873 -0.28679898 100
3.0653787 -0.60332471 -0.2834909 100
3.0710506 -0.59799069 -0.28018284 100
3.0767226 -0.59265667 -0.27687478 100
3.0823946 -0.58732265 -0.27356672 100
3.0880666 -0.58198863 -0.27025864 100
3.0937386 -0.57665461 -0.26695058 100
3.0994105 -0.57132059 -0.26364252 100
3.1050825 -0.56598657 -0.26033446 100
3.1107545 -0.56065255 -0.25702637 100
3.1164265 -0.55531853 -0.25371832 100
3.1220984 -0.54998451 -0.25041026 100
3.1277702 -0.5446505 -0.24710219 100
3.1334422 -0.53931653 -0.24379413 100
3.1391141 -0.53398252 -0.24048606 100
3.1447861 -0.5286485 -0.237178 100
3.1504581 -0.52331448 -0.23386993 100
3.1561301 -0.51798046 -0.23056187 100
3.1618021 -0.51264644 -0.22725379 100
3.167474 -0.50731242 -0.22394574 100
3.173146 -0.5019784 -0.22063766 100
3.178818 -0.49664438 -0.21732961 100
3.18449 -0.49131036 -0.21402153 100
3.1901619 -0.48597634 -0.21071348 100
3.1958339 -0.48064232 -0.2074054 100
3.2015059 -0.4753083 -0.20409735 100
3.2071779 -0.46997428 -0.20078927 100
3.2128499 -0.46464026 -0.19748122 100
3.2601185 -0.3186 -0.16988175 100
3.2556081 -0.31204459 -0.17250907 100
3.2510977 -0.30548918 -0.17513639 100
3.2465873 -0.2989338 -0.17776372 100
3.2420769 -0.2923784 -0.18039104 100
3.2375665 -0.28582299 -0.18301836 100
3.2330561 -0.27926758 -0.18564568 100
3.2285457 -0.27271217 -0.18827301 100
3.2240353 -0.26615676 -0.19090033 100
3.2195246 -0.25960135 -0.19352765 100
3.2150142 -0.25304595 -0.19615498 100
3.2105038 -0.24649055 -0.19878229 100
3.2059934 -0.23993514 -0.20140962 100
3.201483 -0.23337974 -0.20403695 100
3.1969726 -0.22682433 -0.20666428 100
3.1924622 -0.22026892 -0.20929159 100
3.1879518 -0.21371351 -0.21191892 100
3.1834414 -0.2071581 -0.21454625 100
3.178931 -0.2006027 -0.21717358 100
3.1744206 -0.19404727 -0.21980089 100
3.1699102 -0.18749186 -0.22242822 100
3.1653996 -0.18093646 -0.22505555 100
3.1608891 -0.17438105 -0.22768287 100
3.1563787 -0.16782564 -0.2303102 100
3.1518683 -0.16127023 -0.23293751 100
3.1473579 -0.15471482 -0.23556484 100
3.1428475 -0.14815943 -0.23819217 100
3.1383371 -0.14160402 -0.24081948 100
3.1338267 -0.13504863 -0.24344681 100
3.1293163 -0.12849322 -0.24607413 100
3.1248059 -0.12193783 -0.24870145 100
3.1202955 -0.11538243 -0.25132877 100
3.1157851 -0.10882702 -0.25395608 100
3.1112747 -0.10227162 -0.25658342 100
3.1067643 -0.095716223 -0.25921074 100
3.1022537 -0.08916083 -0.26183805 100
3.0977433 -0.082605429 -0.26446536 100
3.0932329 -0.076050028 -0.2670927 100
3.0887225 -0.069494627 -0.26972002 100
3.0842121 -0.062939227 -0.27234733 100
3.0797017 -0.05638383 -0.27497464 100
3.0751913 -0.049828429 -0.27760199 100
3.0706809 -0.043273032 -0.2802293 100
3.0661705 -0.036717631 -0.28285661 100
3.0616601 -0.03016223 -0.28548393 100
3.0571496 -0.023606831 -0.28811127 100
3.0526392 -0.017051432 -0.29073858 100
3.0481288 -0.010496031 -0.2933659 100
3.0436184 -0.0039406321 -0.29599321 100
3.039108 0.0026147673 -0.29862055 100
3.2481146 -0.38019392 -0.060586054 100
3.2437069 -0.38018703 -0.053738687 100
3.2392993 -0.38018015 -0.046891324 100
3.2348914 -0.38017327 -0.040043958 100
3.2304838 -0.38016638 -0.033196595 100
3.2260761 -0.3801595 -0.026349228 100
3.2216685 -0.38015261 -0.019501861 100
3.2172606 -0.38014573 -0.012654499 100
3.212853 -0.38013884 -0.0058071353 100
3.2084453 -0.38013193 0.0010402281 100
3.2040377 -0.38012505 0.0078875916 100
3.1996298 -0.38011816 0.014734955 100
3.1952221 -0.38011128 0.021582318 100
3.1908145 -0.38010439 0.028429687 100
3.1864069 -0.38009751 0.035277054 100
3.1819992 -0.38009062 0.042124424 100
3.1775913 -0.38008374 0.048971791 100
3.1731837 -0.38007686 0.055819161 100
3.168776 -0.38006997 0.062666528 100
3.1643684 -0.38006309 0.069513895 100
3.1599605 -0.3800562 0.076361269 100
3.1555529 -0.38004932 0.083208635 100
3.1511452 -0.38004243 0.090056002 100
3.1467376 -0.38003555 0.096903369 100
3.1423297 -0.38002867 0.10375074 100
3.137922 -0.38002178 0.11059811 100
3.1335144 -0.38001487 0.11744547 100
3.1291068 -0.38000798 0.12429283 100
3.1246989 -0.3800011 0.13114019 100
3.1202912 -0.37999421 0.13798754 100
3.1158836 -0.37998733 0.14483491 100
3.1114759 -0.37998044 0.15168226 100
3.1070683 -0.37997356 0.15852961 100
3.1026604 -0.37996668 0.16537698 100
3.0982528 -0.37995979 0.17222433 100
3.0938451 -0.37995291 0.17907169 100
3.0894375 -0.37994602 0.18591905 100
3.0850296 -0.37993914 0.19276641 100
3.080622 -0.37993225 0.19961376 100
3.0762143 -0.37992537 0.20646113 100
3.0718067 -0.37991849 0.21330848 100
3.067399 -0.3799116 0.22015584 100
3.0629911 -0.37990469 0.2270032 100
3.0585835 -0.3798978 0.23385055 100
