# .PCD v0.7 - Point Cloud Data file format
VERSION 0.7
FIELDS x y z rgb
SIZE 4 4 4 4
TYPE F F F U
COUNT 1 1 1 1
WIDTH 1109
HEIGHT 1
VIEWPOINT 0 0 0 1 0 0 0
POINTS 1109
DATA ascii
6.5459137 -0.52688724 0.55622798 4278190335
6.5558996 -0.52688724 0.55622798 4278190335
6.5658855 -0.52688724 0.55622798 4278190335
6.5758715 -0.52688724 0.55622798 4278190335
6.5858574 -0.52688724 0.55622798 4278190335
6.5958438 -0.52688724 0.55622798 4278190335
6.6058297 -0.52688724 0.55622798 4278190335
6.6158156 -0.52688724 0.55622798 4278190335
6.6258016 -0.52688724 0.55622798 4278190335
6.6357875 -0.52688724 0.55622798 4278190335
6.6457734 -0.52688724 0.55622798 4278190335
6.6557598 -0.52688724 0.55622798 4278190335
6.6657457 -0.52688724 0.55622798 4278190335
6.6757317 -0.52688724 0.55622798 4278190335
6.6857176 -0.52688724 0.55622798 4278190335
6.6957035 -0.52688724 0.55622798 4278190335
6.7056899 -0.52688724 0.55622798 4278190335
6.7156758 -0.52688724 0.55622798 4278190335
6.7256618 -0.52688724 0.55622798 4278190335
6.7356477 -0.52688724 0.55622798 4278190335
6.7456336 -0.52688724 0.55622798 4278190335
6.7556195 -0.52688724 0.55622798 4278190335
6.7656059 -0.52688724 0.55622798 4278190335
6.7755919 -0.52688724 0.55622798 4278190335
6.7855778 -0.52688724 0.55622798 4278190335
6.7855778 -0.52688724 0.55622798 4278190335
6.7855778 -0.51702893 0.55622798 4278190335
6.7855778 -0.50717068 0.55622798 4278190335
6.7855778 -0.4973124 0.55622798 4278190335
6.7855778 -0.48745409 0.55622798 4278190335
6.7855778 -0.47759581 0.55622798 4278190335
6.7855778 -0.46773753 0.55622798 4278190335
6.7855778 -0.45787925 0.55622798 4278190335
6.7855778 -0.44802096 0.55622798 4278190335
6.7855778 -0.43816268 0.55622798 4278190335
6.7855778 -0.42830437 0.55622798 4278190335
6.7855778 -0.41844609 0.55622798 4278190335
6.7855778 -0.40858781 0.55622798 4278190335
6.7855778 -0.39872953 0.55622798 4278190335
6.7855778 -0.38887125 0.55622798 4278190335
6.7855778 -0.37901294 0.55622798 4278190335
6.7855778 -0.36915469 0.55622798 4278190335
6.7855778 -0.35929638 0.55622798 4278190335
6.7855778 -0.34943813 0.55622798 4278190335
6.7855778 -0.33957982 0.55622798 4278190335
6.7855778 -0.32972154 0.55622798 4278190335
6.7855778 -0.31986326 0.55622798 4278190335
6.7855778 -0.31000495 0.55622798 4278190335
6.7855778 -0.30014667 0.55622798 4278190335
6.7855778 -0.29028839 0.55622798 4278190335
6.7855778 -0.28043011 0.55622798 4278190335
6.7855778 -0.27057183 0.55622798 4278190335
6.7855778 -0.26071355 0.55622798 4278190335
6.7855778 -0.25085527 0.55622798 4278190335
6.7855778 -0.24099696 0.55622798 4278190335
6.7855778 -0.23113868 0.55622798 4278190335
6.7855778 -0.2212804 0.55622798 4278190335
6.7855778 -0.21142212 0.55622798 4278190335
6.7855778 -0.20156381 0.55622798 4278190335
6.7855778 -0.19170552 0.55622798 4278190335
6.7855778 -0.18184724 0.55622798 4278190335
6.7855778 -0.17198899 0.55622798 4278190335
6.7855778 -0.16213065 0.55622798 4278190335
6.7855778 -0.1522724 0.55622798 4278190335
6.7855778 -0.14241412 0.55622798 4278190335
6.7855778 -0.13255584 0.55622798 4278190335
6.7855778 -0.12269753 0.55622798 4278190335
6.7855778 -0.11283925 0.55622798 4278190335
6.7855778 -0.10298097 0.55622798 4278190335
6.7855778 -0.093122691 0.55622798 4278190335
6.7855778 -0.083264381 0.55622798 4278190335
6.7855778 -0.0734061 0.55622798 4278190335
6.7855778 -0.06354785 0.55622798 4278190335
6.7855778 -0.053689569 0.55622798 4278190335
6.7855778 -0.043831259 0.55622798 4278190335
6.7855778 -0.033972979 0.55622798 4278190335
6.7855778 -0.024114668 0.55622798 4278190335
6.7855778 -0.014256418 0.55622798 4278190335
6.7855778 -0.0043981075 0.55622798 4278190335
6.7855778 0.0054601431 0.55622798 4278190335
6.7855778 0.015318453 0.55622798 4278190335
6.7855778 0.025176704 0.55622798 4278190335
6.7855778 0.035035014 0.55622798 4278190335
6.7855778 0.044893324 0.55622798 4278190335
6.7855778 0.054751575 0.55622798 4278190335
6.7855778 0.064609885 0.55622798 4278190335
6.7855778 0.074468195 0.55622798 4278190335
6.7855778 0.084326446 0.55622798 4278190335
6.7855778 0.084326431 0.55622798 4278190335
6.7755919 0.084326431 0.55622798 4278190335
6.7656059 0.084326431 0.55622798 4278190335
6.7556195 0.084326431 0.55622798 4278190335
6.7456336 0.084326431 0.55622798 4278190335
6.7356477 0.084326431 0.55622798 4278190335
6.7256618 0.084326431 0.55622798 4278190335
6.7156758 0.084326431 0.55622798 4278190335
6.7056899 0.084326431 0.55622798 4278190335
6.6957035 0.084326431 0.55622798 4278190335
6.6857176 0.084326431 0.55622798 4278190335
6.6757317 0.084326431 0.55622798 4278190335
6.6657457 0.084326431 0.55622798 4278190335
6.6557598 0.084326431 0.55622798 4278190335
6.6457734 0.084326431 0.55622798 4278190335
6.6357875 0.084326431 0.55622798 4278190335
6.6258016 0.084326431 0.55622798 4278190335
6.6158156 0.084326431 0.55622798 4278190335
6.6058297 0.084326431 0.55622798 4278190335
6.5958438 0.084326431 0.55622798 4278190335
6.5858574 0.084326431 0.55622798 4278190335
6.5758715 0.084326431 0.55622798 4278190335
6.5658855 0.084326431 0.55622798 4278190335
6.5558996 0.084326431 0.55622798 4278190335
6.5459137 0.084326431 0.55622798 4278190335
6.5359273 0.084326431 0.55622798 4278190335
6.5259414 0.084326431 0.55622798 4278190335
6.5159554 0.084326431 0.55622798 4278190335
6.5059695 0.084326431 0.55622798 4278190335
6.4959836 0.084326431 0.55622798 4278190335
6.4859977 0.084326431 0.55622798 4278190335
6.4760113 0.084326431 0.55622798 4278190335
6.4660254 0.084326431 0.55622798 4278190335
6.4560394 0.084326431 0.55622798 4278190335
6.4460535 0.084326431 0.55622798 4278190335
6.4360676 0.084326431 0.55622798 4278190335
6.4260812 0.084326431 0.55622798 4278190335
6.4160953 0.084326431 0.55622798 4278190335
6.4061093 0.084326431 0.55622798 4278190335
6.3961234 0.084326431 0.55622798 4278190335
6.3861375 0.084326431 0.55622798 4278190335
6.3761516 0.084326431 0.55622798 4278190335
6.3661652 0.084326431 0.55622798 4278190335
6.3561792 0.084326431 0.55622798 4278190335
6.3461933 0.084326431 0.55622798 4278190335
6.3461933 0.084326431 0.55622798 4278190335
6.3461933 0.074468143 0.55622798 4278190335
6.3461933 0.064609863 0.55622798 4278190335
6.3461933 0.054751575 0.55622798 4278190335
6.3461933 0.044893291 0.55622798 4278190335
6.3461933 0.035035007 0.55622798 4278190335
6.3461933 0.025176723 0.55622798 4278190335
6.3461933 0.015318438 0.55622798 4278190335
6.3461933 0.0054601505 0.55622798 4278190335
6.3461933 -0.0043981299 0.55622798 4278190335
6.3461933 -0.014256418 0.55622798 4278190335
6.3461933 -0.024114706 0.55622798 4278190335
6.3461933 -0.033972986 0.55622798 4278190335
6.3461933 -0.043831274 0.55622798 4278190335
6.3461933 -0.053689554 0.55622798 4278190335
6.3461933 -0.06354785 0.55622798 4278190335
6.3461933 -0.07340613 0.55622798 4278190335
6.3461933 -0.083264425 0.55622798 4278190335
6.3461933 -0.093122691 0.55622798 4278190335
6.3461933 -0.10298099 0.55622798 4278190335
6.3461933 -0.11283927 0.55622798 4278190335
6.3461933 -0.12269756 0.55622798 4278190335
6.3461933 -0.13255584 0.55622798 4278190335
6.3461933 -0.14241414 0.55622798 4278190335
6.3461933 -0.1522724 0.55622798 4278190335
6.3461933 -0.1621307 0.55622798 4278190335
6.3461933 -0.17198898 0.55622798 4278190335
6.3461933 -0.18184726 0.55622798 4278190335
6.3461933 -0.19170554 0.55622798 4278190335
6.3461933 -0.20156385 0.55622798 4278190335
6.3461933 -0.21142213 0.55622798 4278190335
6.3461933 -0.22128041 0.55622798 4278190335
6.3461933 -0.23113869 0.55622798 4278190335
6.3461933 -0.240997 0.55622798 4278190335
6.3461933 -0.25085527 0.55622798 4278190335
6.3461933 -0.26071358 0.55622798 4278190335
6.3461933 -0.27057183 0.55622798 4278190335
6.3461933 -0.28043014 0.55622798 4278190335
6.3461933 -0.29028839 0.55622798 4278190335
6.3461933 -0.3001467 0.55622798 4278190335
6.3461933 -0.31000495 0.55622798 4278190335
6.3461933 -0.31986326 0.55622798 4278190335
6.3461933 -0.32972157 0.55622798 4278190335
6.3461933 -0.33957982 0.55622798 4278190335
6.3461933 -0.34943813 0.55622798 4278190335
6.3461933 -0.35929644 0.55622798 4278190335
6.3461933 -0.36915469 0.55622798 4278190335
6.3461933 -0.37901294 0.55622798 4278190335
6.3461933 -0.38887125 0.55622798 4278190335
6.3461933 -0.39872956 0.55622798 4278190335
6.3461933 -0.40858781 0.55622798 4278190335
6.3461933 -0.41844612 0.55622798 4278190335
6.3461933 -0.42830437 0.55622798 4278190335
6.3461933 -0.43816268 0.55622798 4278190335
6.3461933 -0.44802094 0.55622798 4278190335
6.3461933 -0.45787925 0.55622798 4278190335
6.3461933 -0.4677375 0.55622798 4278190335
6.3461933 -0.47759581 0.55622798 4278190335
6.3461933 -0.48745412 0.55622798 4278190335
6.3461933 -0.49731237 0.55622798 4278190335
6.3461933 -0.50717068 0.55622798 4278190335
6.3461933 -0.51702899 0.55622798 4278190335
6.3461933 -0.52688724 0.55622798 4278190335
6.3461933 -0.52688724 0.59544802 4278190335
6.3561792 -0.52688724 0.59544802 4278190335
6.3661652 -0.52688724 0.59544802 4278190335
6.3761516 -0.52688724 0.59544802 4278190335
6.3861375 -0.52688724 0.59544802 4278190335
6.3961234 -0.52688724 0.59544802 4278190335
6.4061093 -0.52688724 0.59544802 4278190335
6.4160953 -0.52688724 0.59544802 4278190335
6.4260812 -0.52688724 0.59544802 4278190335
6.4360676 -0.52688724 0.59544802 4278190335
6.4460535 -0.52688724 0.59544802 4278190335
6.4560394 -0.52688724 0.59544802 4278190335
6.4660254 -0.52688724 0.59544802 4278190335
6.4760113 -0.52688724 0.59544802 4278190335
6.4859977 -0.52688724 0.59544802 4278190335
6.4959836 -0.52688724 0.59544802 4278190335
6.5059695 -0.52688724 0.59544802 4278190335
6.5159554 -0.52688724 0.59544802 4278190335
6.5259414 -0.52688724 0.59544802 4278190335
6.5359273 -0.52688724 0.59544802 4278190335
6.5459137 -0.52688724 0.59544802 4278190335
6.5558996 -0.52688724 0.59544802 4278190335
6.5658855 -0.52688724 0.59544802 4278190335
6.5758715 -0.52688724 0.59544802 4278190335
6.5858574 -0.52688724 0.59544802 4278190335
6.5958438 -0.52688724 0.59544802 4278190335
6.6058297 -0.52688724 0.59544802 4278190335
6.6158156 -0.52688724 0.59544802 4278190335
6.6258016 -0.52688724 0.59544802 4278190335
6.6357875 -0.52688724 0.59544802 4278190335
6.6457734 -0.52688724 0.59544802 4278190335
6.6557598 -0.52688724 0.59544802 4278190335
6.6657457 -0.52688724 0.59544802 4278190335
6.6757317 -0.52688724 0.59544802 4278190335
6.6857176 -0.52688724 0.59544802 4278190335
6.6957035 -0.52688724 0.59544802 4278190335
6.7056899 -0.52688724 0.59544802 4278190335
6.7156758 -0.52688724 0.59544802 4278190335
6.7256618 -0.52688724 0.59544802 4278190335
6.7356477 -0.52688724 0.59544802 4278190335
6.7456336 -0.52688724 0.59544802 4278190335
6.7556195 -0.52688724 0.59544802 4278190335
6.7656059 -0.52688724 0.59544802 4278190335
6.7755919 -0.52688724 0.59544802 4278190335
6.7855778 -0.52688724 0.59544802 4278190335
6.7855778 -0.52688724 0.59544802 4278190335
6.7855778 -0.51702893 0.59544802 4278190335
6.7855778 -0.50717068 0.59544802 4278190335
6.7855778 -0.4973124 0.59544802 4278190335
6.7855778 -0.48745409 0.59544802 4278190335
6.7855778 -0.47759581 0.59544802 4278190335
6.7855778 -0.46773753 0.59544802 4278190335
6.7855778 -0.45787925 0.59544802 4278190335
6.7855778 -0.44802096 0.59544802 4278190335
6.7855778 -0.43816268 0.59544802 4278190335
6.7855778 -0.42830437 0.59544802 4278190335
6.7855778 -0.41844609 0.59544802 4278190335
6.7855778 -0.40858781 0.59544802 4278190335
6.7855778 -0.39872953 0.59544802 4278190335
6.7855778 -0.38887125 0.59544802 4278190335
6.7855778 -0.37901294 0.59544802 4278190335
6.7855778 -0.36915469 0.59544802 4278190335
6.7855778 -0.35929638 0.59544802 4278190335
6.7855778 -0.34943813 0.59544802 4278190335
6.7855778 -0.33957982 0.59544802 4278190335
6.7855778 -0.32972154 0.59544802 4278190335
6.7855778 -0.31986326 0.59544802 4278190335
6.7855778 -0.31000495 0.59544802 4278190335
6.7855778 -0.30014667 0.59544802 4278190335
6.7855778 -0.29028839 0.59544802 4278190335
6.7855778 -0.28043011 0.59544802 4278190335
6.7855778 -0.27057183 0.59544802 4278190335
6.7855778 -0.26071355 0.59544802 4278190335
6.7855778 -0.25085527 0.59544802 4278190335
6.7855778 -0.24099696 0.59544802 4278190335
6.7855778 -0.23113868 0.59544802 4278190335
6.7855778 -0.2212804 0.59544802 4278190335
6.7855778 -0.21142212 0.59544802 4278190335
6.7855778 -0.20156381 0.59544802 4278190335
6.7855778 -0.19170552 0.59544802 4278190335
6.7855778 -0.18184724 0.59544802 4278190335
6.7855778 -0.17198899 0.59544802 4278190335
6.7855778 -0.16213065 0.59544802 4278190335
6.7855778 -0.1522724 0.59544802 4278190335
6.7855778 -0.14241412 0.59544802 4278190335
6.7855778 -0.13255584 0.59544802 4278190335
6.7855778 -0.12269753 0.59544802 4278190335
6.7855778 -0.11283925 0.59544802 4278190335
6.7855778 -0.10298097 0.59544802 4278190335
6.7855778 -0.093122691 0.59544802 4278190335
6.7855778 -0.083264381 0.59544802 4278190335
6.7855778 -0.0734061 0.59544802 4278190335
6.7855778 -0.06354785 0.59544802 4278190335
6.7855778 -0.053689569 0.59544802 4278190335
6.7855778 -0.043831259 0.59544802 4278190335
6.7855778 -0.033972979 0.59544802 4278190335
6.7855778 -0.024114668 0.59544802 4278190335
6.7855778 -0.014256418 0.59544802 4278190335
6.7855778 -0.0043981075 0.59544802 4278190335
6.7855778 0.0054601431 0.59544802 4278190335
6.7855778 0.015318453 0.59544802 4278190335
6.7855778 0.025176704 0.59544802 4278190335
6.7855778 0.035035014 0.59544802 4278190335
6.7855778 0.044893324 0.59544802 4278190335
6.7855778 0.054751575 0.59544802 4278190335
6.7855778 0.064609885 0.59544802 4278190335
6.7855778 0.074468195 0.59544802 4278190335
6.7855778 0.084326446 0.59544802 4278190335
6.7855778 0.084326431 0.59544802 4278190335
6.7755919 0.084326431 0.59544802 4278190335
6.7656059 0.084326431 0.59544802 4278190335
6.7556195 0.084326431 0.59544802 4278190335
6.7456336 0.084326431 0.59544802 4278190335
6.7356477 0.084326431 0.59544802 4278190335
6.7256618 0.084326431 0.59544802 4278190335
6.7156758 0.084326431 0.59544802 4278190335
6.7056899 0.084326431 0.59544802 4278190335
6.6957035 0.084326431 0.59544802 4278190335
6.6857176 0.084326431 0.59544802 4278190335
6.6757317 0.084326431 0.59544802 4278190335
6.6657457 0.084326431 0.59544802 4278190335
6.6557598 0.084326431 0.59544802 4278190335
6.6457734 0.084326431 0.59544802 4278190335
6.6357875 0.084326431 0.59544802 4278190335
6.6258016 0.084326431 0.59544802 4278190335
6.6158156 0.084326431 0.59544802 4278190335
6.6058297 0.084326431 0.59544802 4278190335
6.5958438 0.084326431 0.59544802 4278190335
6.5858574 0.084326431 0.59544802 4278190335
6.5758715 0.084326431 0.59544802 4278190335
6.5658855 0.084326431 0.59544802 4278190335
6.5558996 0.084326431 0.59544802 4278190335
6.5459137 0.084326431 0.59544802 4278190335
6.5359273 0.084326431 0.59544802 4278190335
6.5259414 0.084326431 0.59544802 4278190335
6.5159554 0.084326431 0.59544802 4278190335
6.5059695 0.084326431 0.59544802 4278190335
6.4959836 0.084326431 0.59544802 4278190335
6.4859977 0.084326431 0.59544802 4278190335
6.4760113 0.084326431 0.59544802 4278190335
6.4660254 0.084326431 0.59544802 4278190335
6.4560394 0.084326431 0.59544802 4278190335
6.4460535 0.084326431 0.59544802 4278190335
6.4360676 0.084326431 0.59544802 4278190335
6.4260812 0.084326431 0.59544802 4278190335
6.4160953 0.084326431 0.59544802 4278190335
6.4061093 0.084326431 0.59544802 4278190335
6.3961234 0.084326431 0.59544802 4278190335
6.3861375 0.084326431 0.59544802 4278190335
6.3761516 0.084326431 0.59544802 4278190335
6.3661652 0.084326431 0.59544802 4278190335
6.3561792 0.084326431 0.59544802 4278190335
6.3461933 0.084326431 0.59544802 4278190335
6.3461933 0.084326431 0.59544802 4278190335
6.3461933 0.074468143 0.59544802 4278190335
6.3461933 0.064609863 0.59544802 4278190335
6.3461933 0.054751575 0.59544802 4278190335
6.3461933 0.044893291 0.59544802 4278190335
6.3461933 0.035035007 0.59544802 4278190335
6.3461933 0.025176723 0.59544802 4278190335
6.3461933 0.015318438 0.59544802 4278190335
6.3461933 0.0054601505 0.59544802 4278190335
6.3461933 -0.0043981299 0.59544802 4278190335
6.3461933 -0.014256418 0.59544802 4278190335
6.3461933 -0.024114706 0.59544802 4278190335
6.3461933 -0.033972986 0.59544802 4278190335
6.3461933 -0.043831274 0.59544802 4278190335
6.3461933 -0.053689554 0.59544802 4278190335
6.3461933 -0.06354785 0.59544802 4278190335
6.3461933 -0.07340613 0.59544802 4278190335
6.3461933 -0.083264425 0.59544802 4278190335
6.3461933 -0.093122691 0.59544802 4278190335
6.3461933 -0.10298099 0.59544802 4278190335
6.3461933 -0.11283927 0.59544802 4278190335
6.3461933 -0.12269756 0.59544802 4278190335
6.3461933 -0.13255584 0.59544802 4278190335
6.3461933 -0.14241414 0.59544802 4278190335
6.3461933 -0.1522724 0.59544802 4278190335
6.3461933 -0.1621307 0.59544802 4278190335
6.3461933 -0.17198898 0.59544802 4278190335
6.3461933 -0.18184726 0.59544802 4278190335
6.3461933 -0.19170554 0.59544802 4278190335
6.3461933 -0.20156385 0.59544802 4278190335
6.3461933 -0.21142213 0.59544802 4278190335
6.3461933 -0.22128041 0.59544802 4278190335
6.3461933 -0.23113869 0.59544802 4278190335
6.3461933 -0.240997 0.59544802 4278190335
6.3461933 -0.25085527 0.59544802 4278190335
6.3461933 -0.26071358 0.59544802 4278190335
6.3461933 -0.27057183 0.59544802 4278190335
6.3461933 -0.28043014 0.59544802 4278190335
6.3461933 -0.29028839 0.59544802 4278190335
6.3461933 -0.3001467 0.59544802 4278190335
6.3461933 -0.31000495 0.59544802 4278190335
6.3461933 -0.31986326 0.59544802 4278190335
6.3461933 -0.32972157 0.59544802 4278190335
6.3461933 -0.33957982 0.59544802 4278190335
6.3461933 -0.34943813 0.59544802 4278190335
6.3461933 -0.35929644 0.59544802 4278190335
6.3461933 -0.36915469 0.59544802 4278190335
6.3461933 -0.37901294 0.59544802 4278190335
6.3461933 -0.38887125 0.59544802 4278190335
6.3461933 -0.39872956 0.59544802 4278190335
6.3461933 -0.40858781 0.59544802 4278190335
6.3461933 -0.41844612 0.59544802 4278190335
6.3461933 -0.42830437 0.59544802 4278190335
6.3461933 -0.43816268 0.59544802 4278190335
6.3461933 -0.44802094 0.59544802 4278190335
6.3461933 -0.45787925 0.59544802 4278190335
6.3461933 -0.4677375 0.59544802 4278190335
6.3461933 -0.47759581 0.59544802 4278190335
6.3461933 -0.48745412 0.59544802 4278190335
6.3461933 -0.49731237 0.59544802 4278190335
6.3461933 -0.50717068 0.59544802 4278190335
6.3461933 -0.51702899 0.59544802 4278190335
6.3461933 -0.52688724 0.59544802 4278190335
6.3461933 -0.52688724 0.55622798 4278190335
6.3461933 -0.52688724 0.56603301 4278190335
6.3461933 -0.52688724 0.57583797 4278190335
6.3461933 -0.52688724 0.58564299 4278190335
6.3461933 -0.52688724 0.59544802 4278190335
6.7855778 -0.52688724 0.55622798 4278190335
6.7855778 -0.52688724 0.56603301 4278190335
6.7855778 -0.52688724 0.57583797 4278190335
6.7855778 -0.52688724 0.58564299 4278190335
6.7855778 -0.52688724 0.59544802 4278190335
6.3461933 0.084326431 0.55622798 4278190335
6.3461933 0.084326431 0.56603301 4278190335
6.3461933 0.084326431 0.57583797 4278190335
6.3461933 0.084326431 0.58564299 4278190335
6.3461933 0.084326431 0.59544802 4278190335
6.7855778 0.084326431 0.55622798 4278190335
6.7855778 0.084326431 0.56603301 4278190335
6.7855778 0.084326431 0.57583797 4278190335
6.7855778 0.084326431 0.58564299 4278190335
6.7855778 0.084326431 0.59544802 4278190335
8.126255 -1.3554951 0.72077799 4292397642
8.1148214 -1.375433 0.72008073 4292397642
8.1217155 -1.3824353 0.72077799 4292397642
8.1102161 -1.4023352 0.72008073 4292397642
8.1109514 -1.4097533 0.72025502 4292397642
8.0954609 -1.4289049 0.71920919 4292397642
8.0942106 -1.4359691 0.71920919 4292397642
8.0904236 -1.4571548 0.71920919 4292397642
8.0871878 -1.4638594 0.71903485 4292397642
8.0735302 -1.4832267 0.71816331 4292397642
8.0781097 -1.4913567 0.71868622 4292397642
8.0604696 -1.509932 0.71746606 4292397642
8.0767708 -1.5202824 0.71903485 4292397642
8.0629787 -1.5395539 0.71816331 4292397642
8.0560312 -1.5440573 0.71764034 4292397642
8.0614662 -1.5684507 0.71851194 4292397642
8.0385857 -1.5712806 0.71659446 4292397642
8.0461712 -1.5946441 0.71764034 4292397642
8.0366812 -1.6015116 0.71694314 4292397642
8.0288372 -1.6203558 0.71659446 4292397642
8.0371838 -1.6293411 0.71746606 4292397642
8.0250835 -1.6487727 0.7167688 4292397642
8.0239305 -1.6543748 0.7167688 4292397642
8.0173292 -1.6763678 0.71659446 4292397642
8.0119638 -1.6825446 0.71624589 4292397642
8.0016861 -1.7022704 0.71572298 4292397642
7.9901571 -1.7085657 0.71485138 4292397642
7.9995894 -1.7310339 0.71607161 4292397642
7.9880376 -1.7372929 0.71520001 4292397642
7.977932 -1.7555218 0.7146771 4292397642
7.9897065 -1.7668867 0.71589726 4292397642
7.9760275 -1.7916253 0.71520001 4292397642
7.9642148 -1.8167355 0.7146771 4292397642
7.9442387 -1.8413756 0.71345693 4292397642
7.9377627 -1.8690951 0.71345693 4292397642
7.9289203 -1.8977119 0.71328253 4292397642
7.9199762 -1.9262893 0.71310824 4292397642
7.9070606 -1.9538708 0.71258533 4292397642
7.9012284 -1.9773228 0.71258533 4292397642
7.8862038 -2.0043058 0.71188807 4292397642
7.8868771 -2.0338118 0.71258533 4292397642
7.8874388 -2.0633464 0.71328253 4292397642
7.8689981 -2.086427 0.7122367 4292397642
7.8382106 -2.1090422 0.710145 4292397642
7.8365679 -2.1379631 0.71066791 4292397642
7.844419 -2.1695535 0.71206236 4292397642
7.8314266 -2.1939423 0.71153951 4292397642
7.8007202 -2.2147353 0.70944774 4292397642
7.8082604 -2.2463584 0.71084219 4292397642
7.7984586 -2.2730434 0.71066791 4292397642
7.7889662 -2.2983277 0.71049362 4292397642
7.7751698 -2.3237903 0.70997071 4292397642
7.7708244 -2.352071 0.71031928 4292397642
7.7545319 -2.3782001 0.70962203 4292397642
7.7499895 -2.4064357 0.70997071 4292397642
7.73774 -2.4322784 0.70962203 4292397642
7.7311015 -2.4598773 0.70979631 4292397642
7.7106552 -2.4845302 0.70875043 4292397642
7.7038307 -2.5120485 0.70892483 4292397642
7.6912303 -2.5376756 0.70857614 4292397642
7.6936646 -2.5682926 0.70962203 4292397642
7.6912303 -2.5682926 0.70857614 4278190335
7.701117 -2.5682926 0.70857614 4278190335
7.7110043 -2.5682926 0.70857614 4278190335
7.720891 -2.5682926 0.70857614 4278190335
7.7307782 -2.5682926 0.70857614 4278190335
7.740665 -2.5682926 0.70857614 4278190335
7.7505517 -2.5682926 0.70857614 4278190335
7.7604389 -2.5682926 0.70857614 4278190335
7.7703257 -2.5682926 0.70857614 4278190335
7.7802124 -2.5682926 0.70857614 4278190335
7.7900996 -2.5682926 0.70857614 4278190335
7.7999864 -2.5682926 0.70857614 4278190335
7.8098736 -2.5682926 0.70857614 4278190335
7.8197603 -2.5682926 0.70857614 4278190335
7.8296471 -2.5682926 0.70857614 4278190335
7.8395343 -2.5682926 0.70857614 4278190335
7.849421 -2.5682926 0.70857614 4278190335
7.8593082 -2.5682926 0.70857614 4278190335
7.869195 -2.5682926 0.70857614 4278190335
7.8790817 -2.5682926 0.70857614 4278190335
7.8889689 -2.5682926 0.70857614 4278190335
7.8988557 -2.5682926 0.70857614 4278190335
7.9087429 -2.5682926 0.70857614 4278190335
7.9186296 -2.5682926 0.70857614 4278190335
7.9285164 -2.5682926 0.70857614 4278190335
7.9384036 -2.5682926 0.70857614 4278190335
7.9482903 -2.5682926 0.70857614 4278190335
7.9581771 -2.5682926 0.70857614 4278190335
7.9680643 -2.5682926 0.70857614 4278190335
7.977951 -2.5682926 0.70857614 4278190335
7.9878383 -2.5682926 0.70857614 4278190335
7.997725 -2.5682926 0.70857614 4278190335
8.0076122 -2.5682926 0.70857614 4278190335
8.017499 -2.5682926 0.70857614 4278190335
8.0273857 -2.5682926 0.70857614 4278190335
8.0372725 -2.5682926 0.70857614 4278190335
8.0471592 -2.5682926 0.70857614 4278190335
8.0570469 -2.5682926 0.70857614 4278190335
8.0669336 -2.5682926 0.70857614 4278190335
8.0768204 -2.5682926 0.70857614 4278190335
8.0867071 -2.5682926 0.70857614 4278190335
8.0965939 -2.5682926 0.70857614 4278190335
8.1064816 -2.5682926 0.70857614 4278190335
8.1163683 -2.5682926 0.70857614 4278190335
8.126255 -2.5682926 0.70857614 4278190335
8.126255 -2.5682926 0.70857614 4278190335
8.126255 -2.5583518 0.70857614 4278190335
8.126255 -2.5484107 0.70857614 4278190335
8.126255 -2.5384698 0.70857614 4278190335
8.126255 -2.5285287 0.70857614 4278190335
8.126255 -2.5185878 0.70857614 4278190335
8.126255 -2.5086467 0.70857614 4278190335
8.126255 -2.4987059 0.70857614 4278190335
8.126255 -2.488765 0.70857614 4278190335
8.126255 -2.4788239 0.70857614 4278190335
8.126255 -2.468883 0.70857614 4278190335
8.126255 -2.4589419 0.70857614 4278190335
8.126255 -2.4490011 0.70857614 4278190335
8.126255 -2.4390602 0.70857614 4278190335
8.126255 -2.4291191 0.70857614 4278190335
8.126255 -2.4191782 0.70857614 4278190335
8.126255 -2.4092371 0.70857614 4278190335
8.126255 -2.3992963 0.70857614 4278190335
8.126255 -2.3893552 0.70857614 4278190335
8.126255 -2.3794143 0.70857614 4278190335
8.126255 -2.3694735 0.70857614 4278190335
8.126255 -2.3595324 0.70857614 4278190335
8.126255 -2.3495915 0.70857614 4278190335
8.126255 -2.3396504 0.70857614 4278190335
8.126255 -2.3297095 0.70857614 4278190335
8.126255 -2.3197684 0.70857614 4278190335
8.126255 -2.3098276 0.70857614 4278190335
8.126255 -2.2998867 0.70857614 4278190335
8.126255 -2.2899456 0.70857614 4278190335
8.126255 -2.2800047 0.70857614 4278190335
8.126255 -2.2700636 0.70857614 4278190335
8.126255 -2.2601228 0.70857614 4278190335
8.126255 -2.2501819 0.70857614 4278190335
8.126255 -2.2402408 0.70857614 4278190335
8.126255 -2.2302999 0.70857614 4278190335
8.126255 -2.2203588 0.70857614 4278190335
8.126255 -2.210418 0.70857614 4278190335
8.126255 -2.2004769 0.70857614 4278190335
8.126255 -2.190536 0.70857614 4278190335
8.126255 -2.1805949 0.70857614 4278190335
8.126255 -2.1706541 0.70857614 4278190335
8.126255 -2.1607132 0.70857614 4278190335
8.126255 -2.1507721 0.70857614 4278190335
8.126255 -2.1408312 0.70857614 4278190335
8.126255 -2.1308904 0.70857614 4278190335
8.126255 -2.1209493 0.70857614 4278190335
8.126255 -2.1110084 0.70857614 4278190335
8.126255 -2.1010673 0.70857614 4278190335
8.126255 -2.0911264 0.70857614 4278190335
8.126255 -2.0811853 0.70857614 4278190335
8.126255 -2.0712445 0.70857614 4278190335
8.126255 -2.0613036 0.70857614 4278190335
8.126255 -2.0513625 0.70857614 4278190335
8.126255 -2.0414217 0.70857614 4278190335
8.126255 -2.0314806 0.70857614 4278190335
8.126255 -2.0215397 0.70857614 4278190335
8.126255 -2.0115986 0.70857614 4278190335
8.126255 -2.0016577 0.70857614 4278190335
8.126255 -1.9917167 0.70857614 4278190335
8.126255 -1.9817758 0.70857614 4278190335
8.126255 -1.9718348 0.70857614 4278190335
8.126255 -1.9618938 0.70857614 4278190335
8.126255 -1.9519529 0.70857614 4278190335
8.126255 -1.942012 0.70857614 4278190335
8.126255 -1.932071 0.70857614 4278190335
8.126255 -1.92213 0.70857614 4278190335
8.126255 -1.912189 0.70857614 4278190335
8.126255 -1.9022481 0.70857614 4278190335
8.126255 -1.892307 0.70857614 4278190335
8.126255 -1.8823662 0.70857614 4278190335
8.126255 -1.8724252 0.70857614 4278190335
8.126255 -1.8624842 0.70857614 4278190335
8.126255 -1.8525432 0.70857614 4278190335
8.126255 -1.8426023 0.70857614 4278190335
8.126255 -1.8326614 0.70857614 4278190335
8.126255 -1.8227204 0.70857614 4278190335
8.126255 -1.8127794 0.70857614 4278190335
8.126255 -1.8028384 0.70857614 4278190335
8.126255 -1.7928975 0.70857614 4278190335
8.126255 -1.7829566 0.70857614 4278190335
8.126255 -1.7730155 0.70857614 4278190335
8.126255 -1.7630746 0.70857614 4278190335
8.126255 -1.7531337 0.70857614 4278190335
8.126255 -1.7431927 0.70857614 4278190335
8.126255 -1.7332517 0.70857614 4278190335
8.126255 -1.7233107 0.70857614 4278190335
8.126255 -1.7133698 0.70857614 4278190335
8.126255 -1.7034287 0.70857614 4278190335
8.126255 -1.6934879 0.70857614 4278190335
8.126255 -1.6835468 0.70857614 4278190335
8.126255 -1.6736059 0.70857614 4278190335
8.126255 -1.6636649 0.70857614 4278190335
8.126255 -1.653724 0.70857614 4278190335
8.126255 -1.6437831 0.70857614 4278190335
8.126255 -1.6338421 0.70857614 4278190335
8.126255 -1.6239011 0.70857614 4278190335
8.126255 -1.6139601 0.70857614 4278190335
8.126255 -1.6040192 0.70857614 4278190335
8.126255 -1.5940783 0.70857614 4278190335
8.126255 -1.5841372 0.70857614 4278190335
8.126255 -1.5741963 0.70857614 4278190335
8.126255 -1.5642552 0.70857614 4278190335
8.126255 -1.5543144 0.70857614 4278190335
8.126255 -1.5443734 0.70857614 4278190335
8.126255 -1.5344324 0.70857614 4278190335
8.126255 -1.5244914 0.70857614 4278190335
8.126255 -1.5145506 0.70857614 4278190335
8.126255 -1.5046095 0.70857614 4278190335
8.126255 -1.4946686 0.70857614 4278190335
8.126255 -1.4847276 0.70857614 4278190335
8.126255 -1.4747866 0.70857614 4278190335
8.126255 -1.4648457 0.70857614 4278190335
8.126255 -1.4549048 0.70857614 4278190335
8.126255 -1.4449637 0.70857614 4278190335
8.126255 -1.4350228 0.70857614 4278190335
8.126255 -1.4250818 0.70857614 4278190335
8.126255 -1.4151409 0.70857614 4278190335
8.126255 -1.4051999 0.70857614 4278190335
8.126255 -1.395259 0.70857614 4278190335
8.126255 -1.3853179 0.70857614 4278190335
8.126255 -1.3753769 0.70857614 4278190335
8.126255 -1.3654361 0.70857614 4278190335
8.126255 -1.3554951 0.70857614 4278190335
8.126255 -1.3554951 0.70857614 4278190335
8.1163683 -1.3554951 0.70857614 4278190335
8.1064816 -1.3554951 0.70857614 4278190335
8.0965939 -1.3554951 0.70857614 4278190335
8.0867071 -1.3554951 0.70857614 4278190335
8.0768204 -1.3554951 0.70857614 4278190335
8.0669336 -1.3554951 0.70857614 4278190335
8.0570469 -1.3554951 0.70857614 4278190335
8.0471592 -1.3554951 0.70857614 4278190335
8.0372725 -1.3554951 0.70857614 4278190335
8.0273857 -1.3554951 0.70857614 4278190335
8.017499 -1.3554951 0.70857614 4278190335
8.0076122 -1.3554951 0.70857614 4278190335
7.997725 -1.3554951 0.70857614 4278190335
7.9878383 -1.3554951 0.70857614 4278190335
7.977951 -1.3554951 0.70857614 4278190335
7.9680643 -1.3554951 0.70857614 4278190335
7.9581771 -1.3554951 0.70857614 4278190335
7.9482903 -1.3554951 0.70857614 4278190335
7.9384036 -1.3554951 0.70857614 4278190335
7.9285164 -1.3554951 0.70857614 4278190335
7.9186296 -1.3554951 0.70857614 4278190335
7.9087429 -1.3554951 0.70857614 4278190335
7.8988557 -1.3554951 0.70857614 4278190335
7.8889689 -1.3554951 0.70857614 4278190335
7.8790817 -1.3554951 0.70857614 4278190335
7.869195 -1.3554951 0.70857614 4278190335
7.8593082 -1.3554951 0.70857614 4278190335
7.849421 -1.3554951 0.70857614 4278190335
7.8395343 -1.3554951 0.70857614 4278190335
7.8296471 -1.3554951 0.70857614 4278190335
7.8197603 -1.3554951 0.70857614 4278190335
7.8098736 -1.3554951 0.70857614 4278190335
7.7999864 -1.3554951 0.70857614 4278190335
7.7900996 -1.3554951 0.70857614 4278190335
7.7802124 -1.3554951 0.70857614 4278190335
7.7703257 -1.3554951 0.70857614 4278190335
7.7604389 -1.3554951 0.70857614 4278190335
7.7505517 -1.3554951 0.70857614 4278190335
7.740665 -1.3554951 0.70857614 4278190335
7.7307777 -1.3554951 0.70857614 4278190335
7.720891 -1.3554951 0.70857614 4278190335
7.7110043 -1.3554951 0.70857614 4278190335
7.701117 -1.3554951 0.70857614 4278190335
7.6912303 -1.3554951 0.70857614 4278190335
7.6912303 -1.3554951 0.70857614 4278190335
7.6912303 -1.3654361 0.70857614 4278190335
7.6912303 -1.3753771 0.70857614 4278190335
7.6912303 -1.385318 0.70857614 4278190335
7.6912303 -1.3952589 0.70857614 4278190335
7.6912303 -1.4051999 0.70857614 4278190335
7.6912303 -1.4151409 0.70857614 4278190335
7.6912303 -1.4250818 0.70857614 4278190335
7.6912303 -1.4350228 0.70857614 4278190335
7.6912303 -1.4449638 0.70857614 4278190335
7.6912303 -1.4549047 0.70857614 4278190335
7.6912303 -1.4648457 0.70857614 4278190335
7.6912303 -1.4747866 0.70857614 4278190335
7.6912303 -1.4847276 0.70857614 4278190335
7.6912303 -1.4946686 0.70857614 4278190335
7.6912303 -1.5046096 0.70857614 4278190335
7.6912303 -1.5145504 0.70857614 4278190335
7.6912303 -1.5244914 0.70857614 4278190335
7.6912303 -1.5344324 0.70857614 4278190335
7.6912303 -1.5443734 0.70857614 4278190335
7.6912303 -1.5543144 0.70857614 4278190335
7.6912303 -1.5642554 0.70857614 4278190335
7.6912303 -1.5741963 0.70857614 4278190335
7.6912303 -1.5841372 0.70857614 4278190335
7.6912303 -1.5940782 0.70857614 4278190335
7.6912303 -1.6040192 0.70857614 4278190335
7.6912303 -1.6139601 0.70857614 4278190335
7.6912303 -1.6239011 0.70857614 4278190335
7.6912303 -1.633842 0.70857614 4278190335
7.6912303 -1.6437831 0.70857614 4278190335
7.6912303 -1.653724 0.70857614 4278190335
7.6912303 -1.6636649 0.70857614 4278190335
7.6912303 -1.6736059 0.70857614 4278190335
7.6912303 -1.6835469 0.70857614 4278190335
7.6912303 -1.6934879 0.70857614 4278190335
7.6912303 -1.7034287 0.70857614 4278190335
7.6912303 -1.7133698 0.70857614 4278190335
7.6912303 -1.7233107 0.70857614 4278190335
7.6912303 -1.7332517 0.70857614 4278190335
7.6912303 -1.7431927 0.70857614 4278190335
7.6912303 -1.7531337 0.70857614 4278190335
7.6912303 -1.7630746 0.70857614 4278190335
7.6912303 -1.7730155 0.70857614 4278190335
7.6912303 -1.7829565 0.70857614 4278190335
7.6912303 -1.7928975 0.70857614 4278190335
7.6912303 -1.8028384 0.70857614 4278190335
7.6912303 -1.8127794 0.70857614 4278190335
7.6912303 -1.8227203 0.70857614 4278190335
7.6912303 -1.8326614 0.70857614 4278190335
7.6912303 -1.8426023 0.70857614 4278190335
7.6912303 -1.8525432 0.70857614 4278190335
7.6912303 -1.8624842 0.70857614 4278190335
7.6912303 -1.8724252 0.70857614 4278190335
7.6912303 -1.8823662 0.70857614 4278190335
7.6912303 -1.892307 0.70857614 4278190335
7.6912303 -1.9022481 0.70857614 4278190335
7.6912303 -1.912189 0.70857614 4278190335
7.6912303 -1.92213 0.70857614 4278190335
7.6912303 -1.932071 0.70857614 4278190335
7.6912303 -1.9420118 0.70857614 4278190335
7.6912303 -1.9519529 0.70857614 4278190335
7.6912303 -1.9618938 0.70857614 4278190335
7.6912303 -1.9718348 0.70857614 4278190335
7.6912303 -1.9817758 0.70857614 4278190335
7.6912303 -1.9917166 0.70857614 4278190335
7.6912303 -2.0016577 0.70857614 4278190335
7.6912303 -2.0115986 0.70857614 4278190335
7.6912303 -2.0215397 0.70857614 4278190335
7.6912303 -2.0314806 0.70857614 4278190335
7.6912303 -2.0414214 0.70857614 4278190335
7.6912303 -2.0513625 0.70857614 4278190335
7.6912303 -2.0613036 0.70857614 4278190335
7.6912303 -2.0712445 0.70857614 4278190335
7.6912303 -2.0811853 0.70857614 4278190335
7.6912303 -2.0911264 0.70857614 4278190335
7.6912303 -2.1010673 0.70857614 4278190335
7.6912303 -2.1110082 0.70857614 4278190335
7.6912303 -2.1209493 0.70857614 4278190335
7.6912303 -2.1308904 0.70857614 4278190335
7.6912303 -2.1408312 0.70857614 4278190335
7.6912303 -2.1507721 0.70857614 4278190335
7.6912303 -2.1607132 0.70857614 4278190335
7.6912303 -2.1706541 0.70857614 4278190335
7.6912303 -2.1805952 0.70857614 4278190335
7.6912303 -2.190536 0.70857614 4278190335
7.6912303 -2.2004771 0.70857614 4278190335
7.6912303 -2.210418 0.70857614 4278190335
7.6912303 -2.2203588 0.70857614 4278190335
7.6912303 -2.2302999 0.70857614 4278190335
7.6912303 -2.2402408 0.70857614 4278190335
7.6912303 -2.2501817 0.70857614 4278190335
7.6912303 -2.2601228 0.70857614 4278190335
7.6912303 -2.2700636 0.70857614 4278190335
7.6912303 -2.2800047 0.70857614 4278190335
7.6912303 -2.2899456 0.70857614 4278190335
7.6912303 -2.2998867 0.70857614 4278190335
7.6912303 -2.3098276 0.70857614 4278190335
7.6912303 -2.3197684 0.70857614 4278190335
7.6912303 -2.3297095 0.70857614 4278190335
7.6912303 -2.3396504 0.70857614 4278190335
7.6912303 -2.3495913 0.70857614 4278190335
7.6912303 -2.3595324 0.70857614 4278190335
7.6912303 -2.3694735 0.70857614 4278190335
7.6912303 -2.3794143 0.70857614 4278190335
7.6912303 -2.3893552 0.70857614 4278190335
7.6912303 -2.3992963 0.70857614 4278190335
7.6912303 -2.4092371 0.70857614 4278190335
7.6912303 -2.4191782 0.70857614 4278190335
7.6912303 -2.4291191 0.70857614 4278190335
7.6912303 -2.4390602 0.70857614 4278190335
7.6912303 -2.4490011 0.70857614 4278190335
7.6912303 -2.4589419 0.70857614 4278190335
7.6912303 -2.468883 0.70857614 4278190335
7.6912303 -2.4788241 0.70857614 4278190335
7.6912303 -2.4887648 0.70857614 4278190335
7.6912303 -2.4987059 0.70857614 4278190335
7.6912303 -2.508647 0.70857614 4278190335
7.6912303 -2.5185878 0.70857614 4278190335
7.6912303 -2.5285287 0.70857614 4278190335
7.6912303 -2.5384698 0.70857614 4278190335
7.6912303 -2.5484109 0.70857614 4278190335
7.6912303 -2.5583515 0.70857614 4278190335
7.6912303 -2.5682926 0.70857614 4278190335
7.6912303 -2.5682926 0.72077799 4278190335
7.701117 -2.5682926 0.72077799 4278190335
7.7110043 -2.5682926 0.72077799 4278190335
7.720891 -2.5682926 0.72077799 4278190335
7.7307782 -2.5682926 0.72077799 4278190335
7.740665 -2.5682926 0.72077799 4278190335
7.7505517 -2.5682926 0.72077799 4278190335
7.7604389 -2.5682926 0.72077799 4278190335
7.7703257 -2.5682926 0.72077799 4278190335
7.7802124 -2.5682926 0.72077799 4278190335
7.7900996 -2.5682926 0.72077799 4278190335
7.7999864 -2.5682926 0.72077799 4278190335
7.8098736 -2.5682926 0.72077799 4278190335
7.8197603 -2.5682926 0.72077799 4278190335
7.8296471 -2.5682926 0.72077799 4278190335
7.8395343 -2.5682926 0.72077799 4278190335
7.849421 -2.5682926 0.72077799 4278190335
7.8593082 -2.5682926 0.72077799 4278190335
7.869195 -2.5682926 0.72077799 4278190335
7.8790817 -2.5682926 0.72077799 4278190335
7.8889689 -2.5682926 0.72077799 4278190335
7.8988557 -2.5682926 0.72077799 4278190335
7.9087429 -2.5682926 0.72077799 4278190335
7.9186296 -2.5682926 0.72077799 4278190335
7.9285164 -2.5682926 0.72077799 4278190335
7.9384036 -2.5682926 0.72077799 4278190335
7.9482903 -2.5682926 0.72077799 4278190335
7.9581771 -2.5682926 0.72077799 4278190335
7.9680643 -2.5682926 0.72077799 4278190335
7.977951 -2.5682926 0.72077799 4278190335
7.9878383 -2.5682926 0.72077799 4278190335
7.997725 -2.5682926 0.72077799 4278190335
8.0076122 -2.5682926 0.72077799 4278190335
8.017499 -2.5682926 0.72077799 4278190335
8.0273857 -2.5682926 0.72077799 4278190335
8.0372725 -2.5682926 0.72077799 4278190335
8.0471592 -2.5682926 0.72077799 4278190335
8.0570469 -2.5682926 0.72077799 4278190335
8.0669336 -2.5682926 0.72077799 4278190335
8.0768204 -2.5682926 0.72077799 4278190335
8.0867071 -2.5682926 0.72077799 4278190335
8.0965939 -2.5682926 0.72077799 4278190335
8.1064816 -2.5682926 0.72077799 4278190335
8.1163683 -2.5682926 0.72077799 4278190335
8.126255 -2.5682926 0.72077799 4278190335
8.126255 -2.5682926 0.72077799 4278190335
8.126255 -2.5583518 0.72077799 4278190335
8.126255 -2.5484107 0.72077799 4278190335
8.126255 -2.5384698 0.72077799 4278190335
8.126255 -2.5285287 0.72077799 4278190335
8.126255 -2.5185878 0.72077799 4278190335
8.126255 -2.5086467 0.72077799 4278190335
8.126255 -2.4987059 0.72077799 4278190335
8.126255 -2.488765 0.72077799 4278190335
8.126255 -2.4788239 0.72077799 4278190335
8.126255 -2.468883 0.72077799 4278190335
8.126255 -2.4589419 0.72077799 4278190335
8.126255 -2.4490011 0.72077799 4278190335
8.126255 -2.4390602 0.72077799 4278190335
8.126255 -2.4291191 0.72077799 4278190335
8.126255 -2.4191782 0.72077799 4278190335
8.126255 -2.4092371 0.72077799 4278190335
8.126255 -2.3992963 0.72077799 4278190335
8.126255 -2.3893552 0.72077799 4278190335
8.126255 -2.3794143 0.72077799 4278190335
8.126255 -2.3694735 0.72077799 4278190335
8.126255 -2.3595324 0.72077799 4278190335
8.126255 -2.3495915 0.72077799 4278190335
8.126255 -2.3396504 0.72077799 4278190335
8.126255 -2.3297095 0.72077799 4278190335
8.126255 -2.3197684 0.72077799 4278190335
8.126255 -2.3098276 0.72077799 4278190335
8.126255 -2.2998867 0.72077799 4278190335
8.126255 -2.2899456 0.72077799 4278190335
8.126255 -2.2800047 0.72077799 4278190335
8.126255 -2.2700636 0.72077799 4278190335
8.126255 -2.2601228 0.72077799 4278190335
8.126255 -2.2501819 0.72077799 4278190335
8.126255 -2.2402408 0.72077799 4278190335
8.126255 -2.2302999 0.72077799 4278190335
8.126255 -2.2203588 0.72077799 4278190335
8.126255 -2.210418 0.72077799 4278190335
8.126255 -2.2004769 0.72077799 4278190335
8.126255 -2.190536 0.72077799 4278190335
8.126255 -2.1805949 0.72077799 4278190335
8.126255 -2.1706541 0.72077799 4278190335
8.126255 -2.1607132 0.72077799 4278190335
8.126255 -2.1507721 0.72077799 4278190335
8.126255 -2.1408312 0.72077799 4278190335
8.126255 -2.1308904 0.72077799 4278190335
8.126255 -2.1209493 0.72077799 4278190335
8.126255 -2.1110084 0.72077799 4278190335
8.126255 -2.1010673 0.72077799 4278190335
8.126255 -2.0911264 0.72077799 4278190335
8.126255 -2.0811853 0.72077799 4278190335
8.126255 -2.0712445 0.72077799 4278190335
8.126255 -2.0613036 0.72077799 4278190335
8.126255 -2.0513625 0.72077799 4278190335
8.126255 -2.0414217 0.72077799 4278190335
8.126255 -2.0314806 0.72077799 4278190335
8.126255 -2.0215397 0.72077799 4278190335
8.126255 -2.0115986 0.72077799 4278190335
8.126255 -2.0016577 0.72077799 4278190335
8.126255 -1.9917167 0.72077799 4278190335
8.126255 -1.9817758 0.72077799 4278190335
8.126255 -1.9718348 0.72077799 4278190335
8.126255 -1.9618938 0.72077799 4278190335
8.126255 -1.9519529 0.72077799 4278190335
8.126255 -1.942012 0.72077799 4278190335
8.126255 -1.932071 0.72077799 4278190335
8.126255 -1.92213 0.72077799 4278190335
8.126255 -1.912189 0.72077799 4278190335
8.126255 -1.9022481 0.72077799 4278190335
8.126255 -1.892307 0.72077799 4278190335
8.126255 -1.8823662 0.72077799 4278190335
8.126255 -1.8724252 0.72077799 4278190335
8.126255 -1.8624842 0.72077799 4278190335
8.126255 -1.8525432 0.72077799 4278190335
8.126255 -1.8426023 0.72077799 4278190335
8.126255 -1.8326614 0.72077799 4278190335
8.126255 -1.8227204 0.72077799 4278190335
8.126255 -1.8127794 0.72077799 4278190335
8.126255 -1.8028384 0.72077799 4278190335
8.126255 -1.7928975 0.72077799 4278190335
8.126255 -1.7829566 0.72077799 4278190335
8.126255 -1.7730155 0.72077799 4278190335
8.126255 -1.7630746 0.72077799 4278190335
8.126255 -1.7531337 0.72077799 4278190335
8.126255 -1.7431927 0.72077799 4278190335
8.126255 -1.7332517 0.72077799 4278190335
8.126255 -1.7233107 0.72077799 4278190335
8.126255 -1.7133698 0.72077799 4278190335
8.126255 -1.7034287 0.72077799 4278190335
8.126255 -1.6934879 0.72077799 4278190335
8.126255 -1.6835468 0.72077799 4278190335
8.126255 -1.6736059 0.72077799 4278190335
8.126255 -1.6636649 0.72077799 4278190335
8.126255 -1.653724 0.72077799 4278190335
8.126255 -1.6437831 0.72077799 4278190335
8.126255 -1.6338421 0.72077799 4278190335
8.126255 -1.6239011 0.72077799 4278190335
8.126255 -1.6139601 0.72077799 4278190335
8.126255 -1.6040192 0.72077799 4278190335
8.126255 -1.5940783 0.72077799 4278190335
8.126255 -1.5841372 0.72077799 4278190335
8.126255 -1.5741963 0.72077799 4278190335
8.126255 -1.5642552 0.72077799 4278190335
8.126255 -1.5543144 0.72077799 4278190335
8.126255 -1.5443734 0.72077799 4278190335
8.126255 -1.5344324 0.72077799 4278190335
8.126255 -1.5244914 0.72077799 4278190335
8.126255 -1.5145506 0.72077799 4278190335
8.126255 -1.5046095 0.72077799 4278190335
8.126255 -1.4946686 0.72077799 4278190335
8.126255 -1.4847276 0.72077799 4278190335
8.126255 -1.4747866 0.72077799 4278190335
8.126255 -1.4648457 0.72077799 4278190335
8.126255 -1.4549048 0.72077799 4278190335
8.126255 -1.4449637 0.72077799 4278190335
8.126255 -1.4350228 0.72077799 4278190335
8.126255 -1.4250818 0.72077799 4278190335
8.126255 -1.4151409 0.72077799 4278190335
8.126255 -1.4051999 0.72077799 4278190335
8.126255 -1.395259 0.72077799 4278190335
8.126255 -1.3853179 0.72077799 4278190335
8.126255 -1.3753769 0.72077799 4278190335
8.126255 -1.3654361 0.72077799 4278190335
8.126255 -1.3554951 0.72077799 4278190335
8.126255 -1.3554951 0.72077799 4278190335
8.1163683 -1.3554951 0.72077799 4278190335
8.1064816 -1.3554951 0.72077799 4278190335
8.0965939 -1.3554951 0.72077799 4278190335
8.0867071 -1.3554951 0.72077799 4278190335
8.0768204 -1.3554951 0.72077799 4278190335
8.0669336 -1.3554951 0.72077799 4278190335
8.0570469 -1.3554951 0.72077799 4278190335
8.0471592 -1.3554951 0.72077799 4278190335
8.0372725 -1.3554951 0.72077799 4278190335
8.0273857 -1.3554951 0.72077799 4278190335
8.017499 -1.3554951 0.72077799 4278190335
8.0076122 -1.3554951 0.72077799 4278190335
7.997725 -1.3554951 0.72077799 4278190335
7.9878383 -1.3554951 0.72077799 4278190335
7.977951 -1.3554951 0.72077799 4278190335
7.9680643 -1.3554951 0.72077799 4278190335
7.9581771 -1.3554951 0.72077799 4278190335
7.9482903 -1.3554951 0.72077799 4278190335
7.9384036 -1.3554951 0.72077799 4278190335
7.9285164 -1.3554951 0.72077799 4278190335
7.9186296 -1.3554951 0.72077799 4278190335
7.9087429 -1.3554951 0.72077799 4278190335
7.8988557 -1.3554951 0.72077799 4278190335
7.8889689 -1.3554951 0.72077799 4278190335
7.8790817 -1.3554951 0.72077799 4278190335
7.869195 -1.3554951 0.72077799 4278190335
7.8593082 -1.3554951 0.72077799 4278190335
7.849421 -1.3554951 0.72077799 4278190335
7.8395343 -1.3554951 0.72077799 4278190335
7.8296471 -1.3554951 0.72077799 4278190335
7.8197603 -1.3554951 0.72077799 4278190335
7.8098736 -1.3554951 0.72077799 4278190335
7.7999864 -1.3554951 0.72077799 4278190335
7.7900996 -1.3554951 0.72077799 4278190335
7.7802124 -1.3554951 0.72077799 4278190335
7.7703257 -1.3554951 0.72077799 4278190335
7.7604389 -1.3554951 0.72077799 4278190335
7.7505517 -1.3554951 0.72077799 4278190335
7.740665 -1.3554951 0.72077799 4278190335
7.7307777 -1.3554951 0.72077799 4278190335
7.720891 -1.3554951 0.72077799 4278190335
7.7110043 -1.3554951 0.72077799 4278190335
7.701117 -1.3554951 0.72077799 4278190335
7.6912303 -1.3554951 0.72077799 4278190335
7.6912303 -1.3554951 0.72077799 4278190335
7.6912303 -1.3654361 0.72077799 4278190335
7.6912303 -1.3753771 0.72077799 4278190335
7.6912303 -1.385318 0.72077799 4278190335
7.6912303 -1.3952589 0.72077799 4278190335
7.6912303 -1.4051999 0.72077799 4278190335
7.6912303 -1.4151409 0.72077799 4278190335
7.6912303 -1.4250818 0.72077799 4278190335
7.6912303 -1.4350228 0.72077799 4278190335
7.6912303 -1.4449638 0.72077799 4278190335
7.6912303 -1.4549047 0.72077799 4278190335
7.6912303 -1.4648457 0.72077799 4278190335
7.6912303 -1.4747866 0.72077799 4278190335
7.6912303 -1.4847276 0.72077799 4278190335
7.6912303 -1.4946686 0.72077799 4278190335
7.6912303 -1.5046096 0.72077799 4278190335
7.6912303 -1.5145504 0.72077799 4278190335
7.6912303 -1.5244914 0.72077799 4278190335
7.6912303 -1.5344324 0.72077799 4278190335
7.6912303 -1.5443734 0.72077799 4278190335
7.6912303 -1.5543144 0.72077799 4278190335
7.6912303 -1.5642554 0.72077799 4278190335
7.6912303 -1.5741963 0.72077799 4278190335
7.6912303 -1.5841372 0.72077799 4278190335
7.6912303 -1.5940782 0.72077799 4278190335
7.6912303 -1.6040192 0.72077799 4278190335
7.6912303 -1.6139601 0.72077799 4278190335
7.6912303 -1.6239011 0.72077799 4278190335
7.6912303 -1.633842 0.72077799 4278190335
7.6912303 -1.6437831 0.72077799 4278190335
7.6912303 -1.653724 0.72077799 4278190335
7.6912303 -1.6636649 0.72077799 4278190335
7.6912303 -1.6736059 0.72077799 4278190335
7.6912303 -1.6835469 0.72077799 4278190335
7.6912303 -1.6934879 0.72077799 4278190335
7.6912303 -1.7034287 0.72077799 4278190335
7.6912303 -1.7133698 0.72077799 4278190335
7.6912303 -1.7233107 0.72077799 4278190335
7.6912303 -1.7332517 0.72077799 4278190335
7.6912303 -1.7431927 0.72077799 4278190335
7.6912303 -1.7531337 0.72077799 4278190335
7.6912303 -1.7630746 0.72077799 4278190335
7.6912303 -1.7730155 0.72077799 4278190335
7.6912303 -1.7829565 0.72077799 4278190335
7.6912303 -1.7928975 0.72077799 4278190335
7.6912303 -1.8028384 0.72077799 4278190335
7.6912303 -1.8127794 0.72077799 4278190335
7.6912303 -1.8227203 0.72077799 4278190335
7.6912303 -1.8326614 0.72077799 4278190335
7.6912303 -1.8426023 0.72077799 4278190335
7.6912303 -1.8525432 0.72077799 4278190335
7.6912303 -1.8624842 0.72077799 4278190335
7.6912303 -1.8724252 0.72077799 4278190335
7.6912303 -1.8823662 0.72077799 4278190335
7.6912303 -1.892307 0.72077799 4278190335
7.6912303 -1.9022481 0.72077799 4278190335
7.6912303 -1.912189 0.72077799 4278190335
7.6912303 -1.92213 0.72077799 4278190335
7.6912303 -1.932071 0.72077799 4278190335
7.6912303 -1.9420118 0.72077799 4278190335
7.6912303 -1.9519529 0.72077799 4278190335
7.6912303 -1.9618938 0.72077799 4278190335
7.6912303 -1.9718348 0.72077799 4278190335
7.6912303 -1.9817758 0.72077799 4278190335
7.6912303 -1.9917166 0.72077799 4278190335
7.6912303 -2.0016577 0.72077799 4278190335
7.6912303 -2.0115986 0.72077799 4278190335
