# .PCD v0.7 - Point Cloud Data file format
VERSION 0.7
FIELDS x y z rgb
SIZE 4 4 4 4
TYPE F F F U
COUNT 1 1 1 1
WIDTH 1074
HEIGHT 1
VIEWPOINT 0 0 0 1 0 0 0
POINTS 1074
DATA ascii
-0.10300814 -1.7086372 -0.029878521 4286543271
-0.10820799 -1.6962932 -0.029669091 4286543271
-0.11302885 -1.6839541 -0.029459663 4286543271
-0.1186125 -1.68357 -0.029459663 4286543271
-0.12478336 -1.687134 -0.029529471 4286543271
-0.13158543 -1.6946402 -0.029669091 4286543271
-0.13747172 -1.6901603 -0.029599281 4286543271
-0.14201795 -1.6737299 -0.029320043 4286543271
-0.14821158 -1.6772078 -0.029389855 4286543271
-0.15443122 -1.6806629 -0.029459663 4286543271
-0.16076182 -1.6881042 -0.029599281 4286543271
-0.16675131 -1.6915419 -0.029669091 4286543271
-0.17102976 -1.6750349 -0.029389855 4286543271
-0.17737855 -1.6763852 -0.029424759 4286543271
-0.18301165 -1.6737682 -0.029389855 4286543271
-0.19042315 -1.6870285 -0.029634187 4286543271
-0.19647831 -1.6903604 -0.029703995 4286543271
-0.20118834 -1.6797367 -0.029529471 4286543271
-0.20754023 -1.6829935 -0.029599281 4286543271
-0.21442023 -1.690194 -0.029738901 4286543271
-0.22083604 -1.6934011 -0.029808709 4286543271
-0.22727683 -1.696584 -0.029878521 4286543271
-0.23101807 -1.6799318 -0.029599281 4286543271
-0.23688073 -1.6791152 -0.029599281 4286543271
-0.24388558 -1.6861944 -0.029738901 4286543271
-0.25035635 -1.689289 -0.029808709 4286543271
-0.25625139 -1.6884049 -0.029808709 4286543271
-0.26091567 -1.6795961 -0.029669091 4286543271
-0.26644176 -1.6746787 -0.029599281 4286543271
-0.27357009 -1.6816336 -0.029738901 4286543271
-0.28045568 -1.6886078 -0.029878521 4286543271
-0.2856791 -1.6836754 -0.029808709 4286543271
-0.29087177 -1.6787274 -0.029738901 4286543271
-0.29672989 -1.6777018 -0.029738901 4286543271
-0.30329448 -1.6805916 -0.029808709 4286543271
-0.30915925 -1.6795226 -0.029808709 4286543271
-0.3169381 -1.6902809 -0.030018138 4286543271
-0.31945789 -1.671487 -0.029703995 4286543271
-0.32567263 -1.6723245 -0.029738901 4286543271
-0.3315084 -1.6711775 -0.029738901 4286543271
-0.33931938 -1.6798106 -0.029913425 4286543271
-0.34518099 -1.6786159 -0.029913425 4286543271
-0.34817111 -1.6636997 -0.029669091 4286543271
-0.35605845 -1.6722535 -0.029843615 4286543271
-0.36189377 -1.6710004 -0.029843615 4286543271
-0.36901459 -1.6755857 -0.02994833 4286543271
-0.37486106 -1.6742876 -0.02994833 4286543271
-0.37804112 -1.6612697 -0.029738901 4286543271
-0.38293654 -1.6560433 -0.029669091 4286543271
-0.39237362 -1.6702702 -0.02994833 4286543271
-0.39820141 -1.6688904 -0.02994833 4286543271
-0.40496612 -1.6713772 -0.030018138 4286543271
-0.40793204 -1.6583024 -0.029808709 4286543271
-0.41468689 -1.6607487 -0.029878521 4286543271
-0.42244637 -1.6670449 -0.030018138 4286543271
-0.42925888 -1.6694335 -0.03008795 4286543271
-0.43508351 -1.667925 -0.03008795 4286543271
-0.43885711 -1.6586633 -0.02994833 4286543271
-0.44464427 -1.6571213 -0.02994833 4286543271
-0.45252594 -1.6632774 -0.03008795 4286543271
-0.45968321 -1.6654627 -0.030157758 4286543271
-0.46764889 -1.671551 -0.030297378 4286543271
-0.47020802 -1.6583654 -0.03008795 4286543271
-0.47488952 -1.6528701 -0.030018138 4286543271
-0.48400953 -1.6627222 -0.030227568 4286543271
-0.49094197 -1.6648586 -0.030297378 4286543271
-0.49789491 -1.666967 -0.030367188 4286543271
-0.50139457 -1.6575626 -0.030227568 4286543271
-0.50600642 -1.6519783 -0.030157758 4286543271
-0.514139 -1.6578418 -0.030297378 4286543271
-0.51992303 -1.656037 -0.030297378 4286543271
-0.52933425 -1.6656467 -0.030506806 4286543271
-0.53024673 -1.6485597 -0.030227568 4286543271
-0.53723609 -1.6505016 -0.030297378 4286543271
-0.54520744 -1.6563088 -0.030436996 4286543271
-0.55224925 -1.65819 -0.030506806 4286543271
-0.55931097 -1.6600424 -0.030576617 4286543271
-0.56123185 -1.6467232 -0.030367188 4286543271
-0.56958318 -1.6523161 -0.030506806 4286543271
-0.5753476 -1.6503178 -0.030506806 4286543271
-0.58671391 -1.6632844 -0.030786045 4286543271
-0.59856248 -1.6781775 -0.031100187 4286543271
-0.60034651 -1.6647915 -0.030890759 4286543271
-0.60889375 -1.6702007 -0.031030379 4286543271
-0.61472023 -1.6680651 -0.031030379 4286543271
-0.62303913 -1.6735134 -0.031169999 4286543271
-0.63028526 -1.6750716 -0.031239808 4286543271
-0.63541782 -1.6709923 -0.031204903 4286543271
-0.64010286 -1.6649189 -0.031135093 4286543271
-0.64663458 -1.6645386 -0.031169999 4286543271
-0.65726292 -1.675416 -0.03141433 4286543271
-0.6623705 -1.6712526 -0.031379428 4286543271
-0.66551709 -1.6613884 -0.031239808 4286543271
-0.67131245 -1.6590551 -0.031239808 4286543271
-0.67861247 -1.6604038 -0.031309616 4286543271
-0.68745643 -1.6654186 -0.031449236 4286543271
-0.6963433 -1.6703918 -0.031588856 4286543271
-0.6990661 -1.6605787 -0.031449236 4286543271
-0.70613301 -1.6619323 -0.031519048 4286543271
-0.71350694 -1.6631327 -0.031588856 4286543271
-0.72407675 -1.6716417 -0.031798285 4286543271
-0.73150975 -1.6727685 -0.031868093 4286543271
-0.73278838 -1.6591009 -0.031658668 4286543271
-0.73857546 -1.6565328 -0.031658668 4286543271
-0.74927723 -1.6648858 -0.031868093 4286543271
-0.75508422 -1.6622601 -0.031868093 4286543271
-0.76225853 -1.6633828 -0.031937905 4286543271
-0.76638144 -1.6570818 -0.031868093 4286543271
-0.77216107 -1.6543965 -0.031868093 4286543271
-0.77963543 -1.6553093 -0.031937905 4286543271
-0.78855228 -1.65994 -0.032077521 4286543271
-0.79607052 -1.6607838 -0.032147333 4286543271
-0.79809225 -1.6509333 -0.032007713 4286543271
-0.80385023 -1.6481373 -0.032007713 4286543271
-0.81518471 -1.6559445 -0.032217141 4286543271
-0.82629681 -1.6638348 -0.03242657 4286543271
-0.83059722 -1.65722 -0.032356761 4286543271
-0.83276832 -1.647172 -0.032217141 4286543271
-0.83822566 -1.6444014 -0.032217141 4286543271
-0.84944683 -1.6521358 -0.03242657 4286543271
-0.85889101 -1.6562614 -0.03256619 4286543271
-0.86652082 -1.6567972 -0.032636002 4286543271
-0.86885446 -1.6465359 -0.032496382 4286543271
-0.87647551 -1.6470234 -0.03256619 4286543271
-0.88221902 -1.6439542 -0.03256619 4286543271
-0.89556634 -1.654934 -0.03284543 4286543271
-0.90679467 -1.6624881 -0.033054858 4286543271
-0.90680999 -1.6488 -0.03284543 4286543271
-0.91255993 -1.6456246 -0.03284543 4286543271
-0.92220223 -1.6494107 -0.03298505 4286543271
-0.9318819 -1.6531495 -0.033124667 4286543271
-0.93962294 -1.6533636 -0.033194479 4286543271
-0.94141215 -1.6431332 -0.033054858 4286543271
-0.94714171 -1.6398373 -0.033054858 4286543271
-0.95889765 -1.6468896 -0.033264287 4286543271
-0.96666455 -1.6469817 -0.033334095 4286543271
-0.97648078 -1.6504816 -0.033473715 4286543271
-0.97813916 -1.640193 -0.033334095 4286543271
-0.98975235 -1.6472248 -0.033543523 4286543271
-0.99210262 -1.6388017 -0.033438813 4286543271
-1.0009418 -1.6404495 -0.033543523 4286543271
-0.99828184 -1.6233186 -0.033264287 4286543271
-0.99579459 -1.6060529 -0.03298505 4286543271
-1.0056337 -1.6093501 -0.033124667 4286543271
-1.0155075 -1.6125988 -0.033264287 4286543271
-1.0254163 -1.6157978 -0.033403907 4286543271
-1.0332049 -1.6155777 -0.033473715 4286543271
-1.0366715 -1.6085995 -0.033403907 4286543271
-1.0422804 -1.6049711 -0.033403907 4286543271
-1.0566361 -1.6147091 -0.033683144 4286543271
-1.0619849 -1.6111963 -0.033683144 4286543271
-1.0742402 -1.6174744 -0.033892576 4286543271
-1.0732074 -1.6037431 -0.033683144 4286543271
-1.0810344 -1.6033033 -0.033752955 4286543271
-1.0936476 -1.6092539 -0.033962384 4286543271
-1.1015179 -1.6087264 -0.034032192 4286543271
-1.1139399 -1.6147478 -0.034241624 4286543271
-1.1104395 -1.5977131 -0.033962384 4286543271
-1.1183038 -1.5971032 -0.034032192 4286543271
-1.1284823 -1.5997263 -0.034171812 4286543271
-1.1410099 -1.6055574 -0.034381241 4286543271
-1.1512637 -1.6080685 -0.034520861 4286543271
-1.1498516 -1.5943087 -0.034311432 4286543271
-1.1601113 -1.5967565 -0.034451049 4286543271
-1.1727642 -1.6023792 -0.034660477 4286543271
-1.1807239 -1.6014948 -0.034730289 4286543271
-1.1860281 -1.5975705 -0.034730289 4286543271
-1.1915975 -1.5934207 -0.034730289 4286543271
-1.197152 -1.5892519 -0.034730289 4286543271
-1.212641 -1.5975959 -0.035009526 4286543271
-1.2209179 -1.5963173 -0.035079334 4286543271
-1.2289237 -1.5952142 -0.03514915 4286543271
-1.236658 -1.5942901 -0.035218958 4286543271
-1.2422156 -1.5899637 -0.035218958 4286543271
-1.2573723 -1.5984091 -0.035498194 4286543271
-1.2679114 -1.6002797 -0.035637815 4286543271
-1.2759839 -1.5989703 -0.035707623 4286543271
-1.2790524 -1.5913893 -0.035637815 4286543271
-1.2848765 -1.5866907 -0.035637815 4286543271
-1.2979904 -1.5914938 -0.035847243 4286543271
-1.3073457 -1.591589 -0.035951961 4286543271
-1.3167169 -1.5916382 -0.036056671 4286543271
-1.3219879 -1.587263 -0.036056671 4286543271
-1.3262355 -1.5811069 -0.036021769 4286543271
-1.3430829 -1.5904503 -0.036335908 4286543271
-1.3512176 -1.5887991 -0.036405724 4286543271
-1.3651162 -1.5927088 -0.036615148 4286543271
-1.3589081 -1.5743098 -0.036301006 4286543271
-1.3798608 -1.5879081 -0.036719862 4286543271
-1.3969691 -1.5968692 -0.037034009 4286543271
-1.405178 -1.5949843 -0.037103817 4286543271
-1.4187 -1.5990441 -0.037313245 4286543271
-1.4216084 -1.5910999 -0.037243433 4286543271
-1.4220791 -1.5799339 -0.037103817 4286543271
-1.4356436 -1.5838494 -0.037313245 4286543271
-1.4411632 -1.5788287 -0.037313245 4286543271
-1.4493724 -1.5767332 -0.037383057 4286543271
-1.4575841 -1.574599 -0.037452865 4286543271
-1.4655244 -1.5726827 -0.037522674 4286543271
-1.479215 -1.5763071 -0.037732106 4286543271
-1.4874552 -1.5740408 -0.037801914 4286543271
-1.4970767 -1.5731845 -0.037906628 4286543271
-1.5067095 -1.5722809 -0.038011342 4286543271
-1.517743 -1.5727675 -0.038150962 4286543271
-1.5232238 -1.5674599 -0.038150962 4286543271
-1.5314828 -1.5649921 -0.038220771 4286543271
-1.5484396 -1.5707606 -0.038500007 4286543271
-1.5553221 -1.5667653 -0.038534917 4286543271
-1.5593675 -1.5599126 -0.038500007 4286543271
-1.5733156 -1.5629152 -0.038709439 4286543271
-1.5896024 -1.5692039 -0.03898868 4286543271
-1.6039129 -1.5717643 -0.039198104 4286543271
-1.6280198 -1.5842865 -0.039651867 4286543271
-1.631827 -1.5774893 -0.039616965 4286543271
-1.6459788 -1.5800923 -0.039826389 4286543271
-1.660169 -1.582616 -0.040035821 4286543271
-1.6773005 -1.5878092 -0.040315062 4286543271
-1.6767297 -1.5767587 -0.040175438 4286543271
-1.6851463 -1.5736258 -0.040245246 4286543271
-1.7023599 -1.5786111 -0.040524486 4286543271
-1.7169615 -1.5804874 -0.040733919 4286543271
-1.728372 -1.579881 -0.040873535 4286543271
-1.736838 -1.5765258 -0.040943347 4286543271
-1.7423302 -1.570454 -0.040943347 4286543271
-1.7567418 -1.5723642 -0.041152775 4286543271
-1.777166 -1.5795072 -0.04150182 4286543271
-1.7886659 -1.5785869 -0.041641444 4286543271
-1.7911578 -1.5696973 -0.041571636 4286543271
-1.7996434 -1.5660609 -0.041641444 4286543271
-1.8172034 -1.5702293 -0.041920681 4286543271
-1.8348145 -1.5742937 -0.042199921 4286543271
-1.8402987 -1.5678793 -0.042199921 4286543271
-1.8488137 -1.5640287 -0.042269729 4286543271
-1.8603866 -1.5627103 -0.042409346 4286543271
-1.8719729 -1.5613303 -0.042548969 4286543271
-1.8897324 -1.5649904 -0.04282821 4286543271
-1.90754 -1.5685447 -0.043107443 4286543271
-1.9037104 -1.5542883 -0.042898018 4286543271
-1.9215511 -1.5577083 -0.043177254 4286543271
-1.9394389 -1.5610218 -0.043456491 4286543271
-1.9573731 -1.5642292 -0.043735731 4286543271
-1.9690874 -1.5623595 -0.043875352 4286543271
-1.9729584 -1.5542386 -0.043840446 4286543271
-1.9893978 -1.5559659 -0.044084776 4286543271
-2.007452 -1.5588241 -0.044364017 4286543271
-2.0207996 -1.5579119 -0.044538539 4286543271
-2.0246377 -1.5496331 -0.044503637 4286543271
-2.0125208 -1.5292474 -0.044119682 4286543271
-2.0322139 -1.5330521 -0.044433825 4286543271
-2.0439553 -1.5307438 -0.044573449 4286543271
-2.0554385 -1.5287309 -0.044713065 4286543271
-2.0704145 -1.5286733 -0.044922493 4286543271
-2.0725119 -1.519073 -0.044852685 4286543271
-2.0972056 -1.5259476 -0.045271542 4286543271
-2.1092696 -1.522933 -0.045411162 4286543271
-2.1243248 -1.5225503 -0.04562059 4286543271
-2.1426618 -1.5243998 -0.045899831 4286543271
-2.14797 -1.5169111 -0.045899831 4286543271
-2.1663516 -1.5185866 -0.046179067 4286543271
-2.178205 -1.5155838 -0.046318687 4286543271
-2.1966453 -1.5170628 -0.046597924 4286543271
-2.2184212 -1.5206919 -0.046946973 4286543271
-2.2237163 -1.5129384 -0.046946973 4286543271
-2.2356126 -1.5096438 -0.047086593 4286543271
-2.2608023 -1.5151901 -0.04750545 4286543271
-2.2827277 -1.5183642 -0.047854498 4286543271
-2.2946889 -1.5147938 -0.047994118 4286543271
-2.2966175 -1.5045824 -0.047924306 4286543271
-2.3119144 -1.5030963 -0.048133738 4286543271
-2.3272295 -1.5015219 -0.048343167 4286543271
-2.350981 -1.5052506 -0.048727117 4286543271
-2.368036 -1.5045415 -0.048971456 4286543271
-2.3800399 -1.5005316 -0.049111072 4286543271
-2.3920441 -1.4964571 -0.049250688 4286543271
-2.4176409 -1.500754 -0.049669549 4286543271
-2.4347832 -1.4996467 -0.049913883 4286543271
-2.4485343 -1.4963528 -0.050088406 4286543271
-2.4571629 -1.4898696 -0.050158214 4286543271
-2.4895034 -1.4982116 -0.050716694 4286543271
-2.5015862 -1.4936123 -0.050856311 4286543271
-2.5306098 -1.4995811 -0.05134498 4286543271
-2.5254853 -1.4846576 -0.051135551 4286543271
-2.5484452 -1.4850175 -0.051484596 4286543271
-2.5605385 -1.4801159 -0.05162422 4286543271
-2.5862474 -1.4835565 -0.052043077 4286543271
-2.6053147 -1.4824314 -0.052322313 4286543271
-2.6383371 -1.4890547 -0.052880794 4286543271
-2.6714368 -1.4954644 -0.053439267 4286543271
-2.6978822 -1.4973073 -0.053858127 4286543271
-2.7206104 -1.497524 -0.054207176 4286543271
-2.7431116 -1.4980785 -0.054556224 4286543271
-2.765908 -1.4980173 -0.054905269 4286543271
-2.7711201 -1.4883533 -0.054905269 4286543271
-2.7904179 -1.4861921 -0.05518451 4286543271
-2.8203444 -1.489516 -0.055673175 4286543271
-2.8467848 -1.4907943 -0.056092035 4286543271
-2.8730075 -1.4924074 -0.056510892 4286543271
-2.8710883 -1.4787079 -0.056371275 4286543271
-2.9044683 -1.483734 -0.056929749 4286543271
-2.9239016 -1.4808143 -0.057208989 4286543271
-2.9612207 -1.4867494 -0.057837274 4286543271
-2.9878747 -1.4870965 -0.058256131 4286543271
-2.9930475 -1.4766577 -0.058256131 4286543271
-3.0089626 -1.4714713 -0.058465563 4286543271
-3.0395298 -1.4726403 -0.058954231 4286543271
-3.0626783 -1.4706774 -0.05930328 4286543271
-3.0889473 -1.4713676 -0.059722137 4286543271
-3.101553 -1.4634501 -0.059861753 4286543271
-3.1250122 -1.4605386 -0.060210802 4286543271
-3.1591239 -1.4630679 -0.060769279 4286543271
-3.1930358 -1.4659324 -0.061327755 4286543271
-3.2327175 -1.4705101 -0.06199095 4286543271
-3.2248154 -1.4540282 -0.061746612 4286543271
-3.2262197 -1.4411315 -0.061676804 4286543271
-3.2312303 -1.4298618 -0.061676804 4286543271
-3.2398651 -1.4201785 -0.061746612 4286543271
-3.24138 -1.4067022 -0.061676804 4286543271
-3.213201 -1.3811654 -0.061048519 4286543271
-3.2069633 -1.3652402 -0.060839087 4286543271
-3.2117095 -1.3540374 -0.060839087 4286543271
-3.2090347 -1.3397373 -0.06069947 4286543271
-3.209996 -1.3269995 -0.060629662 4286543271
-3.2106779 -1.3148317 -0.060559854 4286543271
-3.2004225 -1.2976054 -0.060280614 4286543271
-3.2104998 -1.2886612 -0.060385328 4286543271
-3.2112617 -1.275969 -0.060315516 4286543271
-3.2101133 -1.2625558 -0.060210802 4286543271
-3.1995933 -1.2455404 -0.059931565 4286543271
-3.2001891 -1.232926 -0.059861753 4286543271
-3.2007365 -1.220323 -0.059791945 4286543271
-3.2085073 -1.2111144 -0.059861753 4286543271
-3.2089686 -1.1985087 -0.059791945 4286543271
-3.1943755 -1.1803681 -0.059442896 4286543271
-3.190964 -1.1664642 -0.05930328 4286543271
-3.1950164 -1.1553184 -0.05930328 4286543271
-3.1990294 -1.1441593 -0.05930328 4286543271
-3.1990354 -1.13221 -0.059233464 4286543271
-3.1916437 -1.1170728 -0.05902404 4286543271
-3.1879649 -1.1033082 -0.05888442 4286543271
-3.1842287 -1.0895845 -0.058744799 4286543271
-3.1955895 -1.0810258 -0.05888442 4286543271
-3.2031367 -1.0711329 -0.058954231 4286543271
-3.1878691 -1.0536705 -0.058605183 4286543271
-3.1915278 -1.0425355 -0.058605183 4286543271
-3.1913416 -1.03016 -0.058535371 4286543271
-3.1949179 -1.0190144 -0.058535371 4286543271
-3.1982796 -1.008414 -0.058535371 4286543271
-3.1863329 -0.99304247 -0.058256131 4286543271
-3.178313 -0.97838408 -0.058046706 4286543271
-3.1855352 -0.96844691 -0.058116514 4286543271
-3.1888962 -0.95732212 -0.058116514 4286543271
-3.1922183 -0.94618481 -0.058116514 4286543271
-3.1763098 -0.92941952 -0.057767466 4286543271
-3.1795347 -0.91832709 -0.057767466 4286543271
-3.1788745 -0.90612638 -0.057697657 4286543271
-3.182018 -0.89502448 -0.057697657 4286543271
-3.1812689 -0.8828429 -0.057627846 4286543271
-3.1689019 -0.86750793 -0.057348609 4286543271
-3.1641884 -0.85435593 -0.057208989 4286543271
-3.1787457 -0.84639281 -0.057418417 4286543271
-3.1776669 -0.8348307 -0.057348609 4286543271
-3.1728179 -0.82172865 -0.057208989 4286543271
-3.1640418 -0.80768079 -0.05699956 4286543271
-3.1590846 -0.79467988 -0.05685994 4286543271
-3.1657212 -0.78460974 -0.056929749 4286543271
-3.1684406 -0.77355444 -0.056929749 4286543271
-3.1750104 -0.76342481 -0.05699956 4286543271
-3.1296277 -0.72943944 -0.056092035 4286543271
-3.1399512 -0.72029817 -0.056231655 4286543271
-3.1307425 -0.7066921 -0.056022223 4286543271
-3.1507597 -0.69966084 -0.056336369 4286543271
-3.1824875 -0.69505847 -0.05685994 4286543271
-3.2044451 -0.68814445 -0.057208989 4286543271
-3.288883 -0.6948759 -0.058674991 4286543271
-3.3010781 -0.68542391 -0.058849517 4286543271
-3.3190072 -0.67767352 -0.059128754 4286543271
-3.335077 -0.66883546 -0.059373088 4286543271
-3.3963685 -0.66818839 -0.06042023 4286543271
-3.4497292 -0.66618687 -0.061327755 4286543271
-3.4952574 -0.66233248 -0.062095661 4286543271
-3.5211408 -0.65451217 -0.062514521 4286543271
-3.5824225 -0.65297443 -0.063561663 4286543271
-3.6437354 -0.65101659 -0.064608812 4286543271
-3.7011385 -0.64794987 -0.065586142 4286543271
-3.7427962 -0.64178568 -0.066284239 4286543271
-3.8238978 -0.64195907 -0.067680433 4286543271
-3.8774195 -0.6370371 -0.068587959 4286543271
-3.9170222 -0.63021064 -0.06925115 4286543271
0.0050701662 1.8157165 0.03169357 4286543271
0.011432913 1.819687 0.031763379 4286543271
0.017467653 1.8196391 0.031763379 4286543271
0.023872109 1.8235662 0.03183319 4286543271
0.030169837 1.8194728 0.031763379 4286543271
0.036521282 1.8193564 0.031763379 4286543271
0.04277806 1.8152195 0.03169357 4286543271
0.048797812 1.8150676 0.03169357 4286543271
0.054936033 1.8188934 0.031763379 4286543271
0.061015915 1.8106964 0.031623758 4286543271
0.067651637 1.8104606 0.031623758 4286543271
0.073980667 1.8182184 0.031763379 4286543271
0.080327466 1.8179491 0.031763379 4286543271
0.086544991 1.8216677 0.03183319 4286543271
0.092291683 1.8093718 0.031623758 4286543271
0.09870483 1.805028 0.03155395 4286543271
0.10555253 1.8086467 0.031623758 4286543271
0.11204264 1.8162702 0.031763379 4286543271
0.11806463 1.8158888 0.031763379 4286543271
0.12358192 1.8034955 0.03155395 4286543271
0.12987703 1.8030531 0.03155395 4286543271
0.13645624 1.8105887 0.03169357 4286543271
0.14308962 1.8140885 0.031763379 4286543271
0.14876479 1.805606 0.031623758 4286543271
0.15472479 1.8010911 0.03155395 4286543271
0.16101046 1.80054 0.03155395 4286543271
0.16803525 1.8079314 0.03169357 4286543271
0.17472786 1.8113148 0.031763379 4286543271
0.18176544 1.8146417 0.03183319 4286543271
0.18654624 1.8020946 0.031623758 4286543271
0.19283518 1.8014324 0.031623758 4286543271
0.19912267 1.8007482 0.031623758 4286543271
0.20631374 1.8079895 0.031763379 4286543271
0.21277438 1.8112676 0.03183319 4286543271
0.21765463 1.7986025 0.031623758 4286543271
0.22361745 1.7978709 0.031623758 4286543271
0.23039982 1.8010464 0.03169357 4286543271
0.23772752 1.8081617 0.03183319 4286543271
0.24403821 1.8073208 0.03183319 4286543271
0.24893405 1.7985783 0.03169357 4286543271
0.25464734 1.7937388 0.031623758 4286543271
0.26263547 1.8047122 0.03183319 4286543271
0.26924792 1.8037374 0.03183319 4286543271
0.27675149 1.8106935 0.031972811 4286543271
0.28152478 1.7998382 0.031798285 4286543271
0.28685838 1.7929206 0.03169357 4286543271
0.29440683 1.7998022 0.03183319 4286543271
0.30103105 1.8027608 0.031902999 4286543271
0.30665004 1.7977567 0.03183319 4286543271
0.31123933 1.7888494 0.03169357 4286543271
0.31818059 1.7916899 0.031763379 4286543271
0.32514551 1.7945037 0.03183319 4286543271
0.33213475 1.7972906 0.031902999 4286543271
0.33914655 1.8000506 0.031972811 4286543271
0.34467408 1.794928 0.031902999 4286543271
0.34863418 1.7819389 0.03169357 4286543271
0.3564142 1.7885559 0.03183319 4286543271
0.36393306 1.7952034 0.031972811 4286543271
0.37100601 1.7978388 0.032042619 4286543271
0.37563506 1.7887049 0.031902999 4286543271
0.38020578 1.7795603 0.031763379 4286543271
0.38811257 1.786039 0.031902999 4286543271
0.39607096 1.7924837 0.032042619 4286543271
0.40288916 1.7950624 0.032112427 4286543271
0.4055953 1.7780483 0.03183319 4286543271
0.41270122 1.7805181 0.031902999 4286543271
0.42074767 1.7868522 0.032042619 4286543271
0.42791221 1.7892624 0.032112427 4286543271
0.4350996 1.7916442 0.032182239 4286543271
0.43912479 1.7824252 0.032042619 4286543271
0.44534442 1.7808813 0.032042619 4286543271
0.45124722 1.7793949 0.032042619 4286543271
0.46044609 1.7894282 0.032252047 4286543271
0.46637714 1.7878916 0.032252047 4286543271
0.47056973 1.7785199 0.032112427 4286543271
0.47573826 1.7730039 0.032042619 4286543271
0.48507458 1.7829096 0.032252047 4286543271
0.49235734 1.7850614 0.032321859 4286543271
0.49858585 1.7833318 0.032321859 4286543271
0.5037179 1.7777323 0.032252047 4286543271
0.50991994 1.7759633 0.032252047 4286543271
0.51692259 1.7781031 0.032321859 4286543271
0.52425647 1.7801242 0.032391667 4286543271
0.53275323 1.7859485 0.032531288 4286543271
0.53551471 1.7725924 0.032321859 4286543271
0.54286855 1.7745367 0.032391667 4286543271
0.55055338 1.7763553 0.032461476 4286543271
0.55763805 1.7783358 0.032531288 4286543271
0.56505096 1.7801907 0.032601096 4286543271
0.56759226 1.7667842 0.032391667 4286543271
0.57251906 1.7609888 0.032321859 4286543271
0.58366227 1.7741759 0.032601096 4286543271
0.58985227 1.7721275 0.032601096 4286543271
0.5982765 1.7777427 0.032740716 4286543271
0.60061139 1.7642857 0.032531288 4286543271
0.60776061 1.7660658 0.032601096 4286543271
0.61492735 1.7678183 0.032670904 4286543271
0.62211317 1.7695421 0.032740716 4286543271
0.63127488 1.7747865 0.032880332 4286543271
0.63475978 1.7650452 0.032740716 4286543271
0.63954931 1.7590605 0.032670904 4286543271
0.64844549 1.7643249 0.032810524 4286543271
0.65877897 1.7732977 0.033019952 4286543271
0.66465634 1.771103 0.033019952 4286543271
0.66941518 1.7650332 0.032950144 4286543271
0.67414129 1.7589509 0.032880332 4286543271
0.68316537 1.7640462 0.033019952 4286543271
0.69223404 1.7690995 0.033159573 4286543271
0.69987589 1.7703915 0.033229381 4286543271
0.70308453 1.7605096 0.033089764 4286543271
0.70922601 1.7580445 0.033089764 4286543271
0.71806878 1.7630908 0.033229381 4286543271
0.72573984 1.7642726 0.033299193 4286543271
0.73342866 1.7654215 0.033369001 4286543271
0.73803824 1.7591633 0.033299193 4286543271
0.74261469 1.7528936 0.033229381 4286543271
0.75502121 1.7649988 0.033508621 4286543271
0.7643488 1.7696958 0.033648241 4286543271
0.7689234 1.7633507 0.033578429 4286543271
0.77154487 1.7534699 0.033438813 4286543271
0.779284 1.7544212 0.033508621 4286543271
0.78509808 1.7518272 0.033508621 4286543271
0.79646099 1.7598685 0.03371805 4286543271
0.80592227 1.7643535 0.03385767 4286543271
0.80872774 1.7542653 0.03371805 4286543271
0.81454039 1.7515739 0.03371805 4286543271
0.82234824 1.7523409 0.033787858 4286543271
0.83157647 1.7568341 0.033927478 4286543271
0.84028983 1.7593336 0.034032192 4286543271
0.84816188 1.759993 0.034102004 4286543271
0.84935892 1.7460828 0.033892576 4286543271
0.86073434 1.7538785 0.034102004 4286543271
0.87040079 1.7580315 0.034241624 4286543271
0.87622553 1.7551357 0.034241624 4286543271
0.87844491 1.7450753 0.034102004 4286543271
0.8845306 1.7419987 0.034102004 4286543271
0.89698744 1.751359 0.034346335 4286543271
0.90401363 1.7499937 0.034381241 4286543271
0.91288745 1.7521484 0.034485955 4286543271
0.91806829 1.7471807 0.034451049 4286543271
0.92259222 1.7402707 0.034381241 4286543271
0.93212855 1.744256 0.034520861 4286543271
0.94200653 1.7480328 0.034660477 4286543271
0.95287609 1.7535193 0.034835003 4286543271
0.95226443 1.7379069 0.034590669 4286543271
0.96025878 1.7380731 0.034660477 4286543271
0.97021294 1.7416981 0.034800097 4286543271
0.9818573 1.7489332 0.035009526 4286543271
0.98765123 1.7456678 0.035009526 4286543271
0.98977536 1.7352619 0.034869909 4286543271
0.99981421 1.7387302 0.035009526 4286543271
1.0068808 1.7369592 0.035044432 4286543271
1.0169721 1.7403407 0.035184052 4286543271
1.028116 1.7453951 0.035358574 4286543271
1.0301182 1.7349181 0.035218958 4286543271
1.0361683 1.7313114 0.035218958 4286543271
1.0463375 1.7345327 0.035358574 4286543271
1.0541596 1.7344719 0.035428386 4286543271
1.0622972 1.7341919 0.035498194 4286543271
1.0659423 1.7272558 0.035428386 4286543271
1.0783023 1.7337124 0.035637815 4286543271
1.0864702 1.7333273 0.035707623 4286543271
1.0981568 1.7377861 0.035882145 4286543271
1.1049877 1.7358214 0.035917051 4286543271
1.1107376 1.7321478 0.035917051 4286543271
1.1127378 1.7213471 0.035777435 4286543271
1.1299564 1.7340112 0.036126483 4286543271
1.1378945 1.7335981 0.036196291 4286543271
1.1483511 1.7362874 0.036335908 4286543271
1.1496683 1.7258124 0.036196291 4286543271
1.1559865 1.7215869 0.036196291 4286543271
1.1684104 1.7276832 0.036405724 4286543271
1.1808871 1.7337155 0.036615148 4286543271
1.1891949 1.73288 0.036684956 4286543271
1.195538 1.72851 0.036684956 4286543271
1.1989771 1.7212546 0.036615148 4286543271
1.2118708 1.7268798 0.03682458 4286543271
1.2201997 1.7259049 0.036894388 4286543271
1.2331779 1.7314076 0.037103817 4286543271
1.2368832 1.7238429 0.037034009 4286543271
1.2428926 1.7195151 0.037034009 4286543271
1.2559493 1.7248654 0.037243433 4286543271
1.2666931 1.726921 0.037383057 4286543271
1.2747893 1.7259276 0.037452865 4286543271
1.2784194 1.7182583 0.037383057 4286543271
1.2868083 1.7169852 0.037452865 4286543271
1.3024315 1.7252517 0.037732106 4286543271
1.3141966 1.7288828 0.037906628 4286543271
1.3126297 1.7149875 0.0376972 4286543271
1.3210504 1.7135624 0.037767008 4286543271
1.3294765 1.7120998 0.03783682 4286543271
1.340373 1.7137487 0.037976436 4286543271
1.3537713 1.7184846 0.038185868 4286543271
1.3647338 1.7200143 0.038325485 4286543271
1.3660338 1.7087535 0.038185868 4286543271
1.3742001 1.70733 0.038255677 4286543271
1.3874085 1.7120847 0.038465101 4286543271
1.3984346 1.7134279 0.038604725 4286543271
1.4094851 1.7147161 0.038744342 4286543271
1.4126141 1.7069511 0.038674533 4286543271
1.4249657 1.7096899 0.038849056 4286543271
1.437353 1.712364 0.039023582 4286543271
1.4462023 1.7101376 0.03909339 4286543271
1.459643 1.7144687 0.039302818 4286543271
1.4552053 1.6972187 0.039023582 4286543271
1.4663491 1.6981825 0.039163202 4286543271
1.4801406 1.7021075 0.039372627 4286543271
1.496613 1.7089652 0.039651867 4286543271
1.5052149 1.7067298 0.039721675 4286543271
1.5082109 1.6987385 0.039651867 4286543271
1.5167967 1.6964451 0.039721675 4286543271
1.525386 1.6941122 0.039791487 4286543271
1.5420346 1.7006291 0.040070724 4286543271
1.5557551 1.7043674 0.040280156 4286543271
1.555986 1.6933095 0.040140536 4286543271
1.5646039 1.6908028 0.040210344 4286543271
1.5759492 1.6911831 0.040349964 4286543271
1.5900537 1.6944206 0.040559392 4286543271
1.6069467 1.7004867 0.040838633 4286543271
1.6098201 1.6922513 0.040768825 4286543271
1.6184835 1.6895099 0.040838633 4286543271
1.629925 1.6896063 0.040978249 4286543271
1.6441728 1.692513 0.041187681 4286543271
1.6584616 1.6953399 0.04139711 4286543271
1.6615628 1.6866906 0.041327298 4286543271
1.6758891 1.6893996 0.041536726 4286543271
1.6817765 1.683539 0.041536726 4286543271
1.6961516 1.6861174 0.041746158 4286543271
1.7105658 1.6886147 0.041955583 4286543271
1.7164502 1.682633 0.041955583 4286543271
1.7280445 1.6822113 0.042095207 4286543271
1.7422382 1.6848127 0.042304631 4286543271
1.7596475 1.689801 0.042583872 4286543271
1.765535 1.6836486 0.042583872 4286543271
1.7772098 1.6829751 0.042723492 4286543271
1.7859861 1.6795022 0.0427933 4286543271
1.8006073 1.6814462 0.043002732 4286543271
1.8181963 1.6860276 0.043281965 4286543271
1.8211281 1.6769619 0.043212157 4286543271
1.8269712 1.6705942 0.043212157 4286543271
1.841674 1.6722729 0.043421589 4286543271
1.8593817 1.6765463 0.043700829 4286543271
1.876847 1.6810448 0.043980066 4286543271
1.8856924 1.6771407 0.044049874 4286543271
1.8945326 1.673196 0.044119682 4286543271
1.8973552 1.6639352 0.044049874 4286543271
1.921247 1.6730621 0.044468731 4286543271
1.9361519 1.6741928 0.044678163 4286543271
1.9541218 1.6778451 0.044957399 4286543271
1.9596747 1.6713562 0.044957399 4286543271
1.9685485 1.6670904 0.045027211 4286543271
1.9804782 1.6653562 0.045166828 4286543271
2.004699 1.673813 0.045585688 4286543271
2.0166876 1.6719095 0.045725305 4286543271
2.0194232 1.6623185 0.045655496 4286543271
2.0314071 1.6603205 0.045795113 4286543271
2.0465074 1.6607794 0.046004545 4286543271
2.0616338 1.6611551 0.046213973 4286543271
2.0799119 1.6639413 0.04649321 4286543271
2.0854187 1.6570344 0.04649321 4286543271
2.0971811 1.6550657 0.04663283 4286543271
2.1121013 1.6555032 0.046842258 4286543271
2.1304913 1.6579466 0.047121495 4286543271
2.1520901 1.6627252 0.047470544 4286543271
2.1547072 1.6527691 0.047400735 4286543271
2.1700094 1.6525062 0.047610167 4286543271
2.1824327 1.6493648 0.047749784 4286543271
2.2038839 1.6541218 0.048098832 4286543271
2.2176626 1.652392 0.048273355 4286543271
2.2263446 1.6474085 0.048343167 4286543271
2.2385275 1.6443628 0.048482787 4286543271
2.25718 1.6459639 0.048762023 4286543271
2.2758708 1.6474549 0.049041264 4286543271
2.2945981 1.6488373 0.049320504 4286543271
2.3052239 1.6443007 0.049425215 4286543271
2.3125813 1.6374 0.04946012 4286543271
2.3346436 1.6408153 0.049809169 4286543271
2.3564701 1.6445087 0.050158214 4286543271
2.3753464 1.645383 0.050437454 4286543271
2.3777804 1.6348152 0.050367646 4286543271
2.396687 1.6355218 0.050646886 4286543271
2.4123151 1.6338747 0.050856311 4286543271
2.4345999 1.6365998 0.051205363 4286543271
2.4569314 1.6391913 0.051554412 4286543271
2.4593039 1.6283963 0.051484596 4286543271
2.4797297 1.6301174 0.051798742 4286543271
2.4918196 1.6262575 0.051938362 4286543271
2.5226579 1.6338547 0.052461933 4286543271
2.5420883 1.6332457 0.05274117 4286543271
2.5477734 1.6243627 0.05274117 4286543271
2.5635679 1.6218735 0.052950602 4286543271
2.582763 1.6214203 0.053229842 4286543271
2.6087742 1.6250831 0.053648699 4286543271
2.6246376 1.6222745 0.053858127 4286543271
2.6371019 1.6172863 0.053997744 4286543271
2.6561158 1.6168499 0.054276984 4286543271
2.6737261 1.6148045 0.054521319 4286543271
2.6996477 1.6182673 0.054940179 4286543271
2.7224669 1.6190557 0.055289224 4286543271
2.7281022 1.6095419 0.055289224 4286543271
2.744339 1.6055917 0.055498652 4286543271
2.7706814 1.6080469 0.055917513 4286543271
2.7970743 1.6103376 0.056336369 4286543271
2.8165698 1.6084982 0.056615606 4286543271
2.8221672 1.5986574 0.056615606 4286543271
2.8483715 1.6010472 0.057034463 4286543271
2.8749015 1.6027801 0.057453319 4286543271
2.8979793 1.6024108 0.057802372 4286543271
2.9245944 1.6038254 0.058221228 4286543271
2.9351668 1.5969847 0.058325943 4286543271
2.9460032 1.5895771 0.058430657 4286543271
2.9691663 1.5887176 0.058779709 4286543271
2.9994228 1.5914673 0.059268374 4286543271
3.0261965 1.5921596 0.059687231 4286543271
3.0423732 1.5871367 0.059896659 4286543271
3.0585523 1.5820186 0.060106091 4286543271
3.092526 1.585932 0.060664564 4286543271
3.1194332 1.5860034 0.061083425 4286543271
3.1428077 1.5841048 0.061432473 4286543271
3.1587751 1.5790395 0.061641898 4286543271
3.167851 1.5697801 0.06171171 4286543271
3.2056191 1.574581 0.062339999 4286543271
3.2326708 1.5738866 0.062758856 4286543271
3.263083 1.5753301 0.063247517 4286543271
3.2793858 1.569108 0.063456953 4286543271
3.3065252 1.5679319 0.063875809 4286543271
3.3375893 1.5677054 0.064364478 4286543271
3.3645227 1.5667595 0.064783335 4286543271
3.3917594 1.5650603 0.065202191 4286543271
3.4096608 1.559626 0.065446526 4286543271
3.4369407 1.5576187 0.065865383 4286543271
3.464519 1.5548373 0.066284239 4286543271
3.5012598 1.5559348 0.066877626 4286543271
3.5359533 1.5565937 0.067436099 4286543271
3.5395327 1.5434413 0.067401193 4286543271
3.5795083 1.546767 0.068064384 4286543271
3.6161385 1.5476391 0.068657771 4286543271
3.643343 1.5450065 0.069076627 4286543271
3.6779435 1.5453104 0.069635101 4286543271
3.6980858 1.5386069 0.069914341 4286543271
3.725621 1.53483 0.070333198 4286543271
3.7642846 1.535409 0.070961483 4286543271
3.8067052 1.5372384 0.071659587 4286543271
3.8417568 1.5358166 0.072218053 4286543271
3.8622363 1.5276103 0.072497301 4286543271
3.8970726 1.5264624 0.073055774 4286543271
3.9322095 1.5244138 0.073614255 4286543271
3.9748464 1.5250053 0.074312352 4286543271
4.0140629 1.5231957 0.074940629 4286543271
4.028451 1.5133932 0.075115159 4286543271
-3.789053 1.36489 0.070298299 4286543271
-3.7429276 1.3630542 0.06953039 4286543271
-3.6837263 1.3560766 0.068518147 4286543271
-3.6564803 1.3605586 0.06809929 4286543271
-3.5955572 1.3521978 0.067052148 4286543271
-3.5515614 1.3498205 0.066319145 4286543271
-3.5206933 1.3521723 0.065830477 4286543271
-3.4674819 1.3456436 0.064922951 4286543271
-3.4236684 1.3424091 0.064189956 4286543271
-3.3854966 1.3410964 0.063561663 4286543271
-3.3288107 1.3321034 0.062584333 4286543271
-3.2944777 1.3317235 0.062025853 4286543271
-3.2601874 1.3311211 0.061467376 4286543271
-3.2280231 1.3304946 0.060943801 4286543271
-3.1864367 1.3263851 0.060245708 4286543271
-3.1488361 1.323002 0.059617419 4286543271
-3.1297033 1.3271911 0.059338182 4286543271
-3.0882866 1.3223647 0.058640085 4286543271
-3.061626 1.3236144 0.058221228 4286543271
-3.0423248 1.3278947 0.057941992 4286543271
-2.9846032 1.3151228 0.056929749 4286543271
-2.9653778 1.3190308 0.056650508 4286543271
-2.9717011 1.3342885 0.05685994 4286543271
-2.9709029 1.3457859 0.056929749 4286543271
-2.9807363 1.3628 0.057208989 4286543271
-2.9820263 1.3886414 0.057418417 4286543271
-2.9843998 1.402444 0.057558037 4286543271
-2.9867139 1.4162796 0.057697657 4286543271
-2.9853599 1.4284228 0.057767466 4286543271
-2.9731519 1.4353575 0.057627846 4286543271
-2.9719718 1.4469597 0.057697657 4286543271
-2.981262 1.4643774 0.057976898 4286543271
-2.9797156 1.4765517 0.058046706 4286543271
-2.9745431 1.4869438 0.058046706 4286543271
-2.9693351 1.4973173 0.058046706 4286543271
-2.9676547 1.5094863 0.058116514 4286543271
-2.9659259 1.5216618 0.058186322 4286543271
-2.9677002 1.5356817 0.058325943 4286543271
-2.9696836 1.5492135 0.058465563 4286543271
-2.9607179 1.557709 0.058395755 4286543271
-2.9587951 1.5699087 0.058465563 4286543271
-2.9674029 1.5877742 0.058744799 4286543271
-2.9724016 1.6038201 0.058954231 4286543271
-2.9702981 1.6160976 0.05902404 4286543271
-2.9523661 1.6197239 0.058779709 4286543271
-2.9536939 1.6338909 0.058919325 4286543271
-2.958451 1.6500356 0.059128754 4286543271
-2.9596453 1.664273 0.059268374 4286543271
-2.9645483 1.6799941 0.059477802 4286543271
-2.9482489 1.6843796 0.059268374 4286543271
-2.9461129 1.6961426 0.059338182 4286543271
-2.9540102 1.7144464 0.059617419 4286543271
-2.9549115 1.7287874 0.059757043 4286543271
-2.955749 1.743154 0.059896659 4286543271
-2.9462082 1.7514173 0.059826851 4286543271
-2.9431996 1.7642603 0.059896659 4286543271
-2.9441803 1.7781451 0.060036276 4286543271
-2.9451008 1.7920568 0.060175899 4286543271
-2.9493709 1.8080841 0.060385328 4286543271
-2.9427235 1.8188828 0.060385328 4286543271
-2.9343405 1.8285979 0.060350422 4286543271
-2.9411645 1.847851 0.060629662 4286543271
-2.9451585 1.8640108 0.060839087 4286543271
-2.9490786 1.8802166 0.061048519 4286543271
-2.9324024 1.8840146 0.060839087 4286543271
-2.9321918 1.8990974 0.060978711 4286543271
-2.9359269 1.9153664 0.061188139 4286543271
-2.9359066 1.9299968 0.061327755 4286543271
-2.9358203 1.9446505 0.061467376 4286543271
-2.9290137 1.9548874 0.061467376 4286543271
-2.9254916 1.9673309 0.061537188 4286543271
-2.9252284 1.9820175 0.061676804 4286543271
-2.9318533 2.0007246 0.061956044 4286543271
-2.9314427 2.0154781 0.062095661 4286543271
-2.9145272 2.0188661 0.061886236 4286543271
-2.918941 2.0370383 0.062130567 4286543271
-2.9219861 2.0536056 0.062339999 4286543271
-2.926224 2.0718818 0.062584333 4286543271
-2.9043221 2.0716324 0.062270187 4286543271
-2.8597226 2.054919 0.061467376 4286543271
-2.837954 2.0543358 0.061153233 4286543271
-2.8178401 2.0548034 0.060873993 4286543271
-2.8009806 2.057524 0.060664564 4286543271
-2.7805626 2.0582583 0.060385328 4286543271
-2.7512755 2.0507369 0.059896659 4286543271
-2.7217126 2.0435188 0.05940799 4286543271
-2.704993 2.0457697 0.059198562 4286543271
-2.6819289 2.043081 0.058849517 4286543271
-2.668792 2.0470951 0.058709893 4286543271
-2.6363113 2.0368378 0.05815142 4286543271
-2.613759 2.0332901 0.057802372 4286543271
-2.5972006 2.0350022 0.057592943 4286543271
-2.585372 2.0403392 0.057488225 4286543271
-2.5731812 2.046067 0.057383511 4286543271
-2.5351608 2.0295939 0.056685418 4286543271
-2.5159614 2.0279503 0.056406178 4286543271
-2.5054069 2.034637 0.056336369 4286543271
-2.4886467 2.0362084 0.056126937 4286543271
-2.4691782 2.0347087 0.055847701 4286543271
-2.4420562 2.0267143 0.055393942 4286543271
-2.4150205 2.0185547 0.054940179 4286543271
-2.400311 2.0205331 0.054765653 4286543271
-2.3829186 2.0194316 0.054521319 4286543271
-2.3670809 2.0195353 0.05431189 4286543271
-2.3494 2.0186632 0.054067552 4286543271
-2.3344262 2.0207167 0.05389303 4286543271
-2.3107772 2.0143993 0.053509079 4286543271
-2.3010786 2.0194123 0.053439267 4286543271
-2.2880213 2.022136 0.053299651 4286543271
-2.2600372 2.0114973 0.052810986 4286543271
-2.2440672 2.0113661 0.052601553 4286543271
-2.2296104 2.0124876 0.052427031 4286543271
-2.2155247 2.0131464 0.052252505 4286543271
-2.2040582 2.0168173 0.052147791 4286543271
-2.1738255 2.0024381 0.051589314 4286543271
-2.1624241 2.005934 0.051484596 4286543271
-2.14518 2.0039148 0.051240265 4286543271
-2.1308887 2.0045404 0.051065743 4286543271
-2.1209757 2.0092156 0.050995931 4286543271
-2.0994799 2.0028038 0.050646886 4286543271
-2.075171 1.9934964 0.050228026 4286543271
-2.0653255 1.9979467 0.050158214 4286543271
-2.0554736 2.0023537 0.050088406 4286543271
-2.0370514 1.9983135 0.049809169 4286543271
-2.0172606 1.9927639 0.049495026 4286543271
-1.9932797 1.9828696 0.049076166 4286543271
-1.9895195 1.9922987 0.049145978 4286543271
-1.9772682 1.9932066 0.049006358 4286543271
-1.9646853 1.9943984 0.048866738 4286543271
-1.9381348 1.9812312 0.048378069 4286543271
-1.9228467 1.9793792 0.048168644 4286543271
-1.910718 1.9799883 0.048029024 4286543271
-1.8954931 1.977984 0.047819596 4286543271
-1.8858204 1.9816905 0.047749784 4286543271
-1.8675588 1.9769602 0.047470544 4286543271
-1.8520932 1.9750398 0.047261119 4286543271
-1.8428074 1.9782445 0.047191311 4286543271
-1.8308043 1.9784737 0.047051687 4286543271
-1.8211809 1.9819075 0.046981879 4286543271
-1.7977337 1.9708402 0.046563022 4286543271
-1.7871602 1.9723454 0.046458308 4286543271
-1.7819471 1.9797471 0.04649321 4286543271
-1.7696954 1.9799914 0.046353593 4286543271
-1.7518095 1.9744978 0.046074353 4286543271
-1.7320304 1.9652939 0.045725305 4286543271
-1.7172581 1.962299 0.045515876 4286543271
-1.7156446 1.9743192 0.045655496 4286543271
-1.6979477 1.9684803 0.045376256 4286543271
-1.688809 1.9710628 0.045306448 4286543271
-1.6715517 1.9647616 0.045027211 4286543271
-1.6624463 1.967239 0.044957399 4286543271
-1.6491418 1.9653711 0.044782877 4286543271
-1.6371514 1.9649699 0.044643257 4286543271
-1.6226349 1.9614276 0.044433825 4286543271
-1.6056238 1.9547184 0.044154592 4286543271
-1.5886801 1.9479135 0.043875352 4286543271
-1.5818704 1.9534476 0.043875352 4286543271
-1.5737895 1.9573987 0.043840446 4286543271
-1.5644516 1.9597552 0.043770637 4286543271
-1.5451807 1.9495324 0.043421589 4286543271
-1.5387076 1.9546454 0.043421589 4286543271
-1.5297533 1.9565868 0.043351781 4286543271
-1.5155576 1.9524366 0.043142349 4286543271
-1.5087326 1.9577154 0.043142349 4286543271
-1.4897391 1.947088 0.0427933 4286543271
-1.4756752 1.9427222 0.042583872 4286543271
-1.4692252 1.9476047 0.042583872 4286543271
-1.4624174 1.9527218 0.042583872 4286543271
-1.4508202 1.9513955 0.042444255 4286543271
-1.4321252 1.9403583 0.042095207 4286543271
-1.4229791 1.9421198 0.042025398 4286543271
-1.413839 1.9438403 0.041955583 4286543271
-1.4047034 1.9455216 0.041885775 4286543271
-1.3979042 1.9504129 0.041885775 4286543271
-1.3794955 1.9389863 0.041536726 4286543271
-1.3657968 1.9339894 0.041327298 4286543271
-1.359037 1.9387455 0.041327298 4286543271
-1.3522618 1.9434773 0.041327298 4286543271
-1.3409245 1.941604 0.041187681 4286543271
-1.3254308 1.9328468 0.040908441 4286543271
-1.3164258 1.9341551 0.040838633 4286543271
-1.3051883 1.9321104 0.040699009 4286543271
-1.2984363 1.9366544 0.040699009 4286543271
-1.2894523 1.9378459 0.040629201 4286543271
-1.2716609 1.9256481 0.040280156 4286543271
-1.2605474 1.923385 0.040140536 4286543271
-1.2560058 1.9311264 0.040210344 4286543271
-1.2514266 1.9388589 0.040280156 4286543271
-1.2406743 1.9362638 0.040140536 4286543271
-1.2253246 1.9270827 0.039861299 4286543271
-1.2143215 1.9245834 0.039721675 4286543271
-1.2075964 1.9288102 0.039721675 4286543271
-1.201912 1.9347123 0.039756581 4286543271
-1.1899042 1.9303848 0.039582059 4286543271
-1.1789856 1.9277024 0.039442439 4286543271
-1.1660248 1.9215493 0.03923301 4286543271
-1.1572478 1.9221814 0.039163202 4286543271
-1.1546323 1.9330765 0.039302818 4286543271
-1.1417613 1.9267726 0.03909339 4286543271
-1.1299621 1.9221269 0.038918864 4286543271
-1.117535 1.9155004 0.038709439 4286543271
-1.1118439 1.92112 0.038744342 4286543271
-1.1034749 1.9213289 0.038674533 4286543271
-1.0957711 1.9234316 0.038639627 4286543271
-1.0801966 1.911576 0.038325485 4286543271
-1.069607 1.9083571 0.038185868 4286543271
-1.0652162 1.9153892 0.038255677 4286543271
-1.0585241 1.9190956 0.038255677 4286543271
-1.0495639 1.9194535 0.038185868 4286543271
-1.0329927 1.905707 0.03783682 4286543271
-1.0228794 1.902077 0.0376972 4286543271
-1.0184482 1.9089876 0.037767008 4286543271
-1.0117788 1.9125308 0.037767008 4286543271
-1.0050962 1.9160511 0.037767008 4286543271
-0.98917484 1.901807 0.037417959 4286543271
-0.97886366 1.8981395 0.037278343 4286543271
-0.97256422 1.9013749 0.037278343 4286543271
-0.96772945 1.9083253 0.037348151 4286543271
-0.95747 1.9045449 0.037208531 4286543271
-0.941567 1.8901421 0.036859483 4286543271
-0.93850452 1.9005896 0.036999103 4286543271
-0.92834842 1.8966694 0.036859483 4286543271
-0.92205316 1.8997378 0.036859483 4286543271
-0.91541666 1.9029444 0.036859483 4286543271
-0.90360469 1.8952986 0.036650054 4286543271
-0.89527518 1.8948249 0.036580246 4286543271
-0.88865596 1.8979381 0.036580246 4286543271
-0.88488251 1.906316 0.036684956 4286543271
-0.87404525 1.9003094 0.036510434 4286543271
-0.86292917 1.8944016 0.036335908 4286543271
-0.85499692 1.8936076 0.0362661 4286543271
-0.8491978 1.8984061 0.036301006 4286543271
-0.84094614 1.8977022 0.036231197 4286543271
-0.83318108 1.8989407 0.036196291 4286543271
-0.81970334 1.8851885 0.035882145 4286543271
-0.81311822 1.888038 0.035882145 4286543271
-0.8092069 1.8962419 0.035986863 4286543271
-0.79946947 1.8916872 0.035847243 4286543271
-0.79363286 1.896311 0.035882145 4286543271
-0.78088456 1.8842911 0.035602912 4286543271
-0.77050716 1.8777552 0.035428386 4286543271
-0.76771069 1.8896968 0.035602912 4286543271
-0.76185632 1.8942201 0.035637815 4286543271
-0.75006115 1.8838632 0.03539348 4286543271
-0.74128139 1.8808883 0.035288766 4286543271
-0.73180497 1.8760126 0.03514915 4286543271
-0.72741205 1.8841522 0.03525386 4286543271
-0.72083014 1.88668 0.03525386 4286543271
-0.71457011 1.8890598 0.03525386 4286543271
-0.70269102 1.8764378 0.034974623 4286543271
-0.6936847 1.8712574 0.034835003 4286543271
-0.68787068 1.8776623 0.034904812 4286543271
-0.68471825 1.8894525 0.035079334 4286543271
-0.67609495 1.8861837 0.034974623 4286543271
-0.66582483 1.8771076 0.034765195 4286543271
-0.65860701 1.8775333 0.034730289 4286543271
-0.6504097 1.8740396 0.034625575 4286543271
-0.64386451 1.8762984 0.034625575 4286543271
-0.63731146 1.8785344 0.034625575 4286543271
-0.6278795 1.8732737 0.034485955 4286543271
-0.62166446 1.8753453 0.034485955 4286543271
-0.61262369 1.869903 0.034346335 4286543271
-0.60794097 1.8777373 0.034451049 4286543271
-0.59772646 1.8684206 0.034241624 4286543271
-0.58911574 1.8627658 0.034102004 4286543271
-0.58261025 1.8648108 0.034102004 4286543271
-0.5755071 1.8649223 0.034067098 4286543271
-0.56899422 1.8669199 0.034067098 4286543271
-0.56395292 1.8726259 0.034136906 4286543271
-0.55317807 1.8591526 0.03385767 4286543271
-0.54443103 1.8533975 0.03371805 4286543271
-0.53740078 1.8533661 0.033683144 4286543271
-0.53092754 1.8552309 0.033683144 4286543271
-0.52521086 1.8610134 0.033752955 4286543271
-0.5133478 1.8435712 0.033403907 4286543271
-0.50690889 1.8453519 0.033403907 4286543271
-0.50183278 1.850883 0.033473715 4286543271
-0.49536932 1.8526233 0.033473715 4286543271
-0.49228427 1.8658569 0.033683144 4286543271
-0.47771356 1.8365992 0.033124667 4286543271
-0.47112396 1.8362364 0.033089764 4286543271
-0.46569133 1.8417472 0.033159573 4286543271
-0.46022773 1.8472419 0.033229381 4286543271
-0.45250016 1.8450323 0.033159573 4286543271
-0.44731945 1.8504101 0.033229381 4286543271
-0.43900567 1.8441789 0.033089764 4286543271
-0.43530285 1.8573818 0.033299193 4286543271
-0.42791811 1.8549929 0.033229381 4286543271
-0.42265084 1.8603016 0.033299193 4286543271
-0.41528162 1.8578626 0.033229381 4286543271
-0.40707585 1.8514888 0.033089764 4286543271
-0.40061086 1.8528985 0.033089764 4286543271
-0.39497253 1.8581975 0.033159573 4286543271
-0.38766631 1.8556499 0.033089764 4286543271
-0.37877342 1.8452387 0.032880332 4286543271
-0.3731201 1.8504703 0.032950144 4286543271
-0.36620364 1.8477744 0.032880332 4286543271
-0.36160442 1.8568296 0.033019952 4286543271
-0.35544533 1.8580184 0.033019952 4286543271
-0.34642038 1.8475164 0.032810524 4286543271
-0.34069386 1.8526474 0.032880332 4286543271
-0.33351475 1.8498898 0.032810524 4286543271
-0.32807449 1.8549238 0.032880332 4286543271
-0.32228079 1.8599983 0.032950144 4286543271
-0.31244054 1.8413969 0.032601096 4286543271
-0.30601135 1.8424762 0.032601096 4286543271
-0.30021995 1.8474808 0.032670904 4286543271
-0.2943964 1.8524672 0.032740716 4286543271
-0.28994316 1.8410244 0.032531288 4286543271
-0.28731477 1.8495317 0.032670904 4286543271
-0.2832278 1.8380231 0.032461476 4286543271
-0.2790561 1.8386612 0.032461476 4286543271
-0.27740496 1.8429555 0.032531288 4286543271
-0.27295771 1.8395762 0.032461476 4286543271
-0.2721335 1.8518263 0.032670904 4286543271
-0.2665351 1.8405179 0.032461476 4286543271
-0.26566726 1.852765 0.032670904 4286543271
-0.25730404 1.8377926 0.032391667 4286543271
-0.25422406 1.8462958 0.032531288 4286543271
-0.25120777 1.8386359 0.032391667 4286543271
-0.24671468 1.8392441 0.032391667 4286543271
-0.24478862 1.8395014 0.032391667 4286543271
-0.23925765 1.8321626 0.032252047 4286543271
-0.23836556 1.8403448 0.032391667 4286543271
-0.23294024 1.8491017 0.032531288 4286543271
-0.22454058 1.8340244 0.032252047 4286543271
-0.22228613 1.8504127 0.032531288 4286543271
-0.21813677 1.834797 0.032252047 4286543271
-0.21397255 1.8352873 0.032252047 4286543271
-0.2117312 1.8355473 0.032252047 4286543271
-0.2071169 1.8320489 0.032182239 4286543271
-0.20653374 1.8441883 0.032391667 4286543271
-0.20009457 1.8448982 0.032391667 4286543271
-0.19240177 1.8336527 0.032182239 4286543271
-0.18559599 1.8303341 0.032112427 4286543271
-0.17920531 1.8309709 0.032112427 4286543271
