# .PCD v0.7 - Point Cloud Data file format
VERSION 0.7
FIELDS x y z intensity
SIZE 4 4 4 4
TYPE F F F F
COUNT 1 1 1 1
WIDTH 153
HEIGHT 1
VIEWPOINT 0 0 0 1 0 0 0
POINTS 153
DATA ascii
3.0405948 0.099702097 0.06054261 100
3.0441799 0.10645888 0.064452425 100
3.0477653 0.11321566 0.068362236 100
3.0513504 0.11997244 0.072272055 100
3.0549355 0.12672922 0.076181866 100
3.0585206 0.133486 0.080091685 100
3.0621059 0.14024279 0.084001496 100
3.065691 0.14699955 0.087911315 100
3.0692761 0.15375634 0.091821127 100
3.0728612 0.16051312 0.095730938 100
3.0764465 0.16726989 0.099640757 100
3.0800316 0.17402667 0.10355057 100
3.0836167 0.18078345 0.10746039 100
3.0872018 0.18754023 0.1113702 100
3.0907872 0.19429702 0.11528002 100
3.0943723 0.2010538 0.11918984 100
3.0979574 0.20781058 0.12309965 100
3.1015425 0.21456736 0.12700947 100
3.1051278 0.22132415 0.13091929 100
3.1087129 0.22808093 0.1348291 100
3.112298 0.23483771 0.13873892 100
3.1158831 0.24159449 0.14264874 100
3.1194685 0.24835128 0.14655855 100
3.1230536 0.25510806 0.15046836 100
3.1266387 0.26186484 0.15437819 100
3.1302238 0.26862162 0.158288 100
3.1338091 0.27537841 0.16219781 100
3.1373942 0.28213519 0.16610762 100
3.1409793 0.28889194 0.17001744 100
3.1445644 0.29564872 0.17392725 100
3.1481497 0.30240551 0.17783706 100
3.1517348 0.30916226 0.18174687 100
3.1553199 0.31591904 0.18565668 100
3.158905 0.32267582 0.18956649 100
3.1624901 0.32943258 0.1934763 100
3.1660755 0.33618936 0.19738612 100
3.1696606 0.34294614 0.20129593 100
3.1732457 0.34970292 0.20520574 100
3.1768308 0.35645968 0.20911555 100
3.1804161 0.36321646 0.21302536 100
3.1840012 0.36997324 0.21693517 100
3.1875863 0.37673 0.22084498 100
3.1911714 0.38348678 0.2247548 100
3.1947565 0.39024356 0.22866461 100
3.1983418 0.39700031 0.23257442 100
3.2019269 0.4037571 0.23648423 100
3.205512 0.41051388 0.24039404 100
3.2090971 0.41727063 0.24430385 100
3.2126825 0.42402741 0.24821366 100
3.2162676 0.4307842 0.25212348 100
3.2198527 0.43754098 0.2560333 100
3.2234378 0.44429773 0.2599431 100
3.2270231 0.45105451 0.26385292 100
3.2306082 0.4578113 0.26776272 100
3.2341933 0.46456805 0.27167255 100
3.2377784 0.47132483 0.27558234 100
3.2413635 0.47808161 0.27949214 100
2.9206097 0.82192332 0.081306681 100
2.9262629 0.81656963 0.084912591 100
2.931916 0.81121594 0.0885185 100
2.9375694 0.80586225 0.09212441 100
2.9432225 0.80050856 0.09573032 100
2.9488757 0.79515481 0.099336237 100
2.954529 0.78980112 0.10294215 100
2.9601822 0.78444743 0.10654806 100
2.9658353 0.77909374 0.11015397 100
2.9714885 0.77374005 0.11375988 100
2.9771419 0.76838636 0.11736578 100
2.982795 0.76303267 0.12097169 100
2.9884481 0.75767899 0.1245776 100
2.9941015 0.75232524 0.12818351 100
2.9997547 0.74697155 0.13178943 100
3.0054078 0.74161786 0.13539535 100
3.0110612 0.73626417 0.13900125 100
3.0167143 0.73091048 0.14260717 100
3.0223675 0.72555673 0.14621308 100
3.0280209 0.72020304 0.14981899 100
3.033674 0.71484935 0.1534249 100
3.0393271 0.70949566 0.15703082 100
3.0449803 0.70414197 0.16063672 100
3.0506337 0.69878823 0.16424264 100
3.0562868 0.69343454 0.16784856 100
3.06194 0.68808085 0.17145447 100
3.0675933 0.68272716 0.17506038 100
3.0732465 0.67737347 0.17866628 100
3.0788996 0.67201978 0.1822722 100
3.0845528 0.66666609 0.1858781 100
3.0902061 0.6613124 0.189484 100
3.0958593 0.65595871 0.19308992 100
3.1015124 0.65060502 0.19669582 100
3.1071658 0.64525133 0.20030172 100
3.112819 0.63989758 0.20390764 100
3.1184721 0.6345439 0.20751354 100
3.1241252 0.62919021 0.21111944 100
3.1297786 0.62383652 0.21472536 100
3.1354318 0.61848283 0.21833126 100
3.1410849 0.61312914 0.22193716 100
3.1467381 0.60777545 0.22554308 100
3.1523914 0.60242176 0.22914898 100
3.1580446 0.59706807 0.23275489 100
3.1636977 0.59171438 0.2363608 100
3.1693511 0.58636069 0.23996671 100
3.1750042 0.581007 0.24357261 100
3.1806574 0.57565331 0.24717852 100
3.1863105 0.57029963 0.25078443 100
3.1919639 0.56494594 0.25439033 100
3.1976171 0.55959225 0.25799623 100
3.2032702 0.5542385 0.26160213 100
3.2089233 0.54888481 0.26520807 100
3.2145767 0.54353112 0.26881397 100
3.2202299 0.53817743 0.27241987 100
3.225883 0.53282374 0.27602577 100
3.2315364 0.52747005 0.27963167 100
3.2371895 0.52211636 0.28323758 100
3.1632099 0.48310375 0.39738899 100
3.1565976 0.48155254 0.40472862 100
3.1499851 0.48000136 0.41206822 100
3.1433728 0.47845015 0.41940784 100
3.1367602 0.47689897 0.42674747 100
3.1301479 0.47534776 0.43408707 100
3.1235356 0.47379658 0.44142669 100
3.1169231 0.47224537 0.44876632 100
3.1103108 0.47069418 0.45610592 100
3.1036983 0.46914297 0.46344554 100
3.097086 0.46759179 0.47078517 100
3.0904737 0.46604058 0.47812477 100
3.0838611 0.4644894 0.48546439 100
3.0772488 0.46293819 0.49280402 100
3.0706363 0.46138701 0.50014365 100
3.064024 0.4598358 0.50748324 100
3.0574114 0.45828462 0.5148229 100
3.0507991 0.45673341 0.5221625 100
3.0441868 0.45518219 0.52950209 100
3.0375743 0.45363101 0.53684175 100
3.030962 0.4520798 0.54418135 100
3.0243495 0.45052862 0.551521 100
3.0177372 0.44897741 0.5588606 100
3.0111246 0.44742623 0.5662002 100
3.0045123 0.44587502 0.57353985 100
2.9979 0.44432384 0.58087945 100
2.9912875 0.44277263 0.58821905 100
2.9846752 0.44122145 0.5955587 100
2.9780626 0.43967023 0.6028983 100
2.9714503 0.43811905 0.6102379 100
2.964838 0.43656784 0.61757749 100
2.9582255 0.43501666 0.62491715 100
2.9516132 0.43346545 0.63225675 100
2.9450009 0.43191427 0.63959634 100
2.9383883 0.43036306 0.64693594 100
2.931776 0.42881188 0.65427554 100
2.9251635 0.42726067 0.66161519 100
2.9185512 0.42570949 0.66895479 100
2.9119389 0.42415828 0.67629439 100
