# .PCD v0.7 - Point Cloud Data file format
VERSION 0.7
FIELDS x y z intensity
SIZE 4 4 4 4
TYPE F F F F
COUNT 1 1 1 1
WIDTH 425
HEIGHT 1
VIEWPOINT 0 0 0 1 0 0 0
POINTS 425
DATA ascii
2.8685408 0.574754 -0.051065743 0
2.8449252 0.56021506 -0.050611977 0
2.823303 0.54572755 -0.050193124 0
2.8153672 0.53400636 -0.050018597 0
2.8231122 0.52527231 -0.050123312 0
2.8190269 0.514337 -0.050018597 0
2.8208048 0.50449431 -0.050018597 0
2.8186097 0.49395365 -0.049948789 0
2.8144038 0.48309889 -0.049844075 0
2.8259332 0.47492817 -0.050018597 0
2.8236277 0.46441114 -0.049948789 0
2.8251524 0.45504433 -0.049948789 0
2.8207972 0.44424856 -0.049844075 0
2.8242309 0.43519574 -0.049878977 0
2.8336427 0.42652452 -0.050018597 0
2.843101 0.41729802 -0.050158214 0
2.8484995 0.40793747 -0.050228026 0
2.8379536 0.39682963 -0.050018597 0
2.8392541 0.38741568 -0.050018597 0
2.8405893 0.37750173 -0.050018597 0
2.8537889 0.36912221 -0.050228026 0
2.8590279 0.35965955 -0.050297838 0
2.8483565 0.34822077 -0.050088406 0
2.8535259 0.33874807 -0.050158214 0
2.8586643 0.3292422 -0.050228026 0
2.8796699 0.32147947 -0.050577074 0
2.8609471 0.30877763 -0.050228026 0
2.8659854 0.29920506 -0.050297838 0
2.8669617 0.28970003 -0.050297838 0
2.8938291 0.28221318 -0.0507516 0
2.9147058 0.2739808 -0.051100649 0
2.9057322 0.26239744 -0.050926123 0
2.8966694 0.25138909 -0.0507516 0
2.9074934 0.24210519 -0.050926123 0
2.9382212 0.23433861 -0.051449694 0
2.8878307 0.84008539 0.052496839 0
2.8984334 0.83220792 0.052636456 0
2.8974726 0.82099569 0.052566648 0
2.8926177 0.80872214 0.052427031 0
2.8875732 0.79699641 0.052287407 0
2.8980556 0.78901392 0.052427031 0
2.904655 0.7799294 0.052496839 0
2.899627 0.76774019 0.052357223 0
2.8945498 0.75559288 0.052217599 0
2.8971696 0.74548364 0.052217599 0
2.9036307 0.73634976 0.052287407 0
2.910064 0.72717857 0.052357223 0
2.9125841 0.71701813 0.052357223 0
2.9014657 0.70354754 0.052112885 0
2.907794 0.69434339 0.052182697 0
2.9024134 0.68235904 0.052043077 0
2.9144011 0.67498565 0.052217599 0
2.9167392 0.66480905 0.052217599 0
2.911237 0.65287393 0.052077983 0
2.9076402 0.64141476 0.051973268 0
2.9137695 0.63210982 0.052043077 0
2.9257371 0.62401986 0.052217599 0
2.9278977 0.61380255 0.052217599 0
2.9182708 0.60115981 0.052008174 0
2.9203517 0.59096873 0.052008174 0
2.9302416 0.58233088 0.052147791 0
2.9360821 0.57337636 0.052217599 0
2.9321737 0.56199539 0.052112885 0
2.9262567 0.55027777 0.051973268 0
2.9281597 0.54006046 0.051973268 0
2.930027 0.52983522 0.051973268 0
2.9436727 0.52169865 0.052182697 0
2.9454761 0.51141936 0.052182697 0
2.9354148 0.49912262 0.051973268 0
2.9410839 0.4895317 0.052043077 0
2.942775 0.47926167 0.052043077 0
2.9522474 0.47075918 0.052182697 0
2.9538724 0.46045306 0.052182697 0
2.9474754 0.44944853 0.052043077 0
2.9451473 0.43805477 0.051973268 0
2.9585321 0.42949456 0.052182697 0
2.9600134 0.41916397 0.052182697 0
2.965349 0.40989414 0.052252505 0
2.9548013 0.39845413 0.052043077 0
2.9601395 0.38865879 0.052112885 0
2.9655113 0.37831351 0.052182697 0
2.9746871 0.36946392 0.052322313 0
2.9759588 0.35907724 0.052322313 0
2.9692497 0.34775579 0.052182697 0
2.9704454 0.33738971 0.052182697 0
2.9756377 0.32693768 0.052252505 0
2.9887469 0.31729507 0.052461933 0
2.9937613 0.30779049 0.052531745 0
2.9808362 0.2964763 0.052287407 0
2.9957869 0.28740683 0.052531745 0
2.9948289 0.27624181 0.052496839 0
3.0037422 0.26649231 0.052636456 0
3.0166092 0.25702345 0.052845888 0
3.0055296 0.24551573 0.052636456 0
3.0103557 0.23533389 0.052706268 0
3.0111587 0.22482643 0.052706268 0
3.0278826 0.21544877 0.052985508 0
3.0326064 0.2051473 0.053055316 0
3.017339 0.19353691 0.05277608 0
3.0219884 0.18324451 0.052845888 0
3.0266023 0.17292345 0.052915696 0
3.0391402 0.16353121 0.053125124 0
3.0436869 0.15312177 0.053194933 0
3.0362127 0.14212301 0.053055316 0
3.0406859 0.13169605 0.053125124 0
3.0371096 0.12145285 0.053055316 0
3.0375152 0.11084981 0.053055316 0
3.0298891 0.099983044 0.052915696 0
3.0162277 0.088992521 0.052671362 0
3.0045123 0.078676388 0.052461933 0
3.0047688 0.068188831 0.052461933 0
2.8596711 0.83081257 0.15606584 0
2.8500271 0.80647755 0.15522847 0
2.8738453 0.80293304 0.15637985 0
2.8843324 0.79502004 0.15679854 0
2.894799 0.78704363 0.15721723 0
2.8975289 0.77693325 0.15721723 0
2.9156709 0.77089775 0.15805461 0
2.9338052 0.76474637 0.15889199 0
2.9519322 0.75847632 0.15972935 0
2.962306 0.75013071 0.16014804 0
2.9687822 0.74075198 0.16035739 0
2.9829874 0.73324424 0.16098543 0
3.0049403 0.72752762 0.16203214 0
3.0152326 0.71888596 0.16245082 0
3.0214884 0.7097972 0.16266017 0
3.0297854 0.70059651 0.16297418 0
3.0516875 0.69444722 0.1640209 0
3.0657871 0.68640804 0.16464894 0
3.0720654 0.67656201 0.16485828 0
3.0666006 0.66414255 0.16443959 0
3.0708532 0.65385216 0.16454425 0
3.0613875 0.64067334 0.16391623 0
3.0714304 0.63159156 0.16433492 0
3.0775321 0.62165797 0.16454425 0
3.0639043 0.608338 0.1637069 0
3.0679696 0.59802055 0.16381156 0
3.0661149 0.58655781 0.16360222 0
3.0720696 0.5765875 0.16381156 0
3.0779924 0.5665828 0.1640209 0
3.0720892 0.55441701 0.16360222 0
3.0700724 0.54299349 0.16339287 0
3.0680127 0.53159374 0.16318353 0
3.0816648 0.52288502 0.16381156 0
3.0795307 0.51146954 0.16360222 0
3.0851521 0.50189811 0.16381156 0
3.0789957 0.48986974 0.16339287 0
3.0924442 0.48149952 0.1640209 0
3.0941062 0.47070113 0.1640209 0
3.0997622 0.45994449 0.16423026 0
3.0894885 0.44740465 0.16360222 0
3.090955 0.43715769 0.16360222 0
3.104259 0.42854327 0.16423026 0
3.1136539 0.41876879 0.16464894 0
3.1190569 0.40841833 0.16485828 0
3.1085763 0.39601314 0.16423026 0
3.113904 0.38564986 0.16443959 0
3.1191971 0.37525576 0.16464894 0
3.128423 0.36529112 0.16506761 0
3.129679 0.35436934 0.16506761 0
3.1269863 0.34246042 0.16485828 0
3.1241903 0.33112279 0.16464894 0
3.1431525 0.32259667 0.16559097 0
3.142272 0.31142521 0.16548631 0
3.1473162 0.30083549 0.16569565 0
3.1324866 0.28783515 0.16485828 0
3.1255143 0.27619642 0.16443959 0
3.1264596 0.26528382 0.16443959 0
3.1233852 0.25404418 0.16423026 0
3.1123052 0.24221231 0.16360222 0
3.0832553 0.22912581 0.16203214 0
3.0720825 0.21751614 0.1614041 0
3.0608666 0.20598578 0.16077606 0
3.0615671 0.1952993 0.16077606 0
3.0542557 0.18413113 0.16035739 0
3.030921 0.1726395 0.15910132 0
3.0235276 0.16163129 0.15868263 0
3.0081151 0.15027961 0.15784526 0
3.0046313 0.13959225 0.15763591 0
3.001087 0.12945621 0.15742657 0
2.9855547 0.11834744 0.1565892 0
2.9699821 0.10734724 0.15575182 0
2.9663463 0.096848287 0.15554248 0
2.9626584 0.086895891 0.15533313 0
2.9589505 0.076449797 0.1551238 0
2.9472189 0.065852188 0.15449576 0
2.8221295 0.79805136 0.25658652 0
2.794976 0.76934081 0.25362319 0
2.8244298 0.76738071 0.25606358 0
2.8386383 0.76061022 0.25710943 0
2.8297179 0.74764508 0.25606358 0
2.843879 0.74077553 0.25710943 0
2.8618858 0.73480719 0.25850391 0
2.8837483 0.72970092 0.26024702 0
2.8978775 0.72252154 0.2612929 0
2.896512 0.71145183 0.26094431 0
2.9105966 0.70414835 0.26199016 0
2.9246659 0.6967538 0.26303601 0
2.9464777 0.69109082 0.26477915 0
2.96052 0.68348986 0.265825 0
2.9627702 0.67366928 0.265825 0
2.9728811 0.66506362 0.26652226 0
2.994643 0.65896326 0.26826537 0
3.0163977 0.65272039 0.27000847 0
3.0303509 0.644674 0.27105436 0
3.0325828 0.63409132 0.27105436 0
3.0503902 0.62671161 0.27244884 0
3.0642779 0.61842406 0.27349472 0
3.0859616 0.61159796 0.27523783 0
3.1037233 0.60386544 0.27663234 0
3.1057086 0.59357035 0.27663234 0
3.1195114 0.5849281 0.27767819 0
3.1411295 0.57763958 0.2794213 0
3.1568522 0.5691452 0.2806415 0
3.1764777 0.56124282 0.28221029 0
3.1823437 0.55083025 0.28255892 0
3.1940691 0.54138231 0.28343046 0
3.213629 0.53316671 0.28499928 0
3.2410371 0.52609497 0.28726533 0
3.2487566 0.51571614 0.28778824 0
3.2484803 0.50463337 0.28761396 0
3.250222 0.49329165 0.28761396 0
3.2479825 0.48135826 0.28726533 0
3.2456992 0.46944797 0.2869167 0
3.2315354 0.45588812 0.28552222 0
3.211318 0.44218054 0.28360477 0
3.1930201 0.42887583 0.28186166 0
3.1906192 0.41665468 0.28151307 0
3.1841478 0.40451106 0.28081581 0
3.1736765 0.39192787 0.27976993 0
3.1591334 0.37950099 0.27837545 0
3.1406491 0.36616313 0.27663234 0
3.1300294 0.35385573 0.27558646 0
3.1273441 0.34194884 0.27523783 0
3.1166883 0.32922763 0.27419198 0
3.0939784 0.31645691 0.27210024 0
3.0831144 0.30501887 0.27105436 0
3.0762782 0.29296035 0.2703571 0
3.0693452 0.28149459 0.26965985 0
3.0584013 0.26972783 0.26861399 0
3.043442 0.25770473 0.26721951 0
3.030422 0.245952 0.26599932 0
3.0332487 0.23552577 0.26617363 0
3.0221303 0.22405311 0.26512775 0
3.0189192 0.21322244 0.26477915 0
2.9997659 0.20134804 0.26303601 0
2.9765902 0.1893584 0.26094431 0
2.9772329 0.17896621 0.26094431 0
2.9718719 0.16823545 0.26042137 0
2.972441 0.15785986 0.26042137 0
2.9470792 0.14671478 0.25815532 0
2.9316514 0.13568893 0.25676081 0
2.932107 0.12545533 0.25676081 0
2.9285455 0.1150624 0.25641218 0
2.9169643 0.10492124 0.25536633 0
2.8954082 0.094027758 0.2534489 0
2.7703221 0.7205829 0.35147122 0
2.7670519 0.70942855 0.35073999 0
2.7810595 0.70268244 0.35220242 0
2.7912002 0.69489068 0.3531774 0
2.8128884 0.68987095 0.35561478 0
2.8268566 0.68284512 0.35707721 0
2.8292232 0.67297262 0.35707721 0
2.8431523 0.66580772 0.35853964 0
2.864687 0.66083986 0.36097702 0
2.8824632 0.65435112 0.36292693 0
2.8886044 0.64515001 0.36341441 0
2.8947163 0.63591546 0.36390188 0
2.9007995 0.62664473 0.36438939 0
2.9223866 0.62064111 0.36682677 0
2.9400811 0.6136803 0.36877668 0
2.9538732 0.60580593 0.37023908 0
2.9559698 0.59549189 0.37023908 0
2.9658201 0.58671021 0.37121406 0
2.9911325 0.5814178 0.37413892 0
3.0048435 0.57320571 0.37560135 0
3.0263383 0.56636423 0.37803873 0
3.0243919 0.55507934 0.37755126 0
3.0438945 0.54768324 0.37974492 0
3.0614274 0.53981161 0.38169482 0
3.0789418 0.53182709 0.38364473 0
3.0964375 0.5237239 0.38559461 0
3.1099975 0.51485658 0.38705707 0
3.1117759 0.50399822 0.38705707 0
3.1428387 0.49834022 0.39071316 0
3.1602528 0.48979807 0.39266306 0
3.1638227 0.47961229 0.39290681 0
3.1439579 0.46482009 0.39022568 0
3.1357374 0.45242611 0.38900697 0
3.1215718 0.43926382 0.38705707 0
3.1112113 0.42728993 0.38559461 0
3.1047413 0.41591534 0.38461968 0
3.0904269 0.40302077 0.38266978 0
3.0761285 0.38969585 0.38071984 0
3.0734632 0.37900764 0.38023239 0
3.0668836 0.36733332 0.37925744 0
3.0563164 0.35524967 0.37779501 0
3.0397844 0.34257737 0.37560135 0
3.0252323 0.32971376 0.37365144 0
3.0224717 0.31820849 0.37316394 0
3.0116618 0.30697528 0.37170154 0
3.0067363 0.2964029 0.37097031 0
2.9840384 0.28365064 0.36804545 0
2.9771507 0.27198994 0.3670705 0
2.9701719 0.26090193 0.36609554 0
2.9671085 0.2501981 0.36560807 0
2.9600492 0.23919907 0.36463311 0
2.9331574 0.22672535 0.36122078 0
2.9260118 0.21590023 0.36024579 0
2.9188271 0.20512919 0.35927087 0
2.9234867 0.19520305 0.35975835 0
2.9083011 0.18399355 0.35780841 0
2.8891103 0.17265695 0.35537103 0
2.8758216 0.16179113 0.35366488 0
2.8763423 0.15225287 0.35366488 0
2.8728909 0.14201623 0.3531774 0
2.865437 0.13162197 0.35220242 0
2.8420794 0.12061089 0.34927759 0
2.7575696 0.66508842 0.44927984 0
2.7790935 0.66002375 0.45240852 0
2.7812669 0.65080482 0.45240852 0
2.7796719 0.64020497 0.45178279 0
2.7895956 0.6322453 0.45303425 0
2.8110659 0.62680227 0.45616296 0
2.8325322 0.62121695 0.45929164 0
2.8443375 0.61340994 0.46085599 0
2.8483942 0.60388654 0.46116886 0
2.8601542 0.59595549 0.46273321 0
2.8776989 0.58913678 0.46523616 0
2.8991041 0.58298177 0.46836486 0
2.9107106 0.57528037 0.46992919 0
2.9165792 0.56586975 0.47055492 0
2.9262991 0.55716258 0.47180638 0
2.9321096 0.54767054 0.47243217 0
2.9573202 0.54170245 0.47618657 0
2.9630814 0.53207499 0.4768123 0
2.9765933 0.52378339 0.47868952 0
2.9803503 0.51372463 0.47900239 0
2.999656 0.50627756 0.4818182 0
3.0208948 0.49902242 0.48494691 0
3.0439832 0.49247301 0.48838848 0
3.0495856 0.48246253 0.48901421 0
3.0550733 0.47295061 0.48963994 0
3.0801432 0.46582884 0.49339435 0
3.074013 0.4533827 0.49214289 0
3.0618901 0.44068047 0.4899528 0
3.0496416 0.42859915 0.48776269 0
3.0353899 0.41633704 0.48525977 0
3.0250766 0.40417001 0.48338255 0
3.0264692 0.39360726 0.48338255 0
3.0160661 0.38155362 0.48150533 0
2.9938524 0.36812949 0.47775093 0
2.9892349 0.35697326 0.4768123 0
2.9845757 0.34585658 0.47587368 0
2.9779129 0.33455345 0.47462222 0
2.9732277 0.32299581 0.47368363 0
2.9487975 0.30993167 0.46961632 0
2.9419487 0.29935074 0.46836486 0
2.9351118 0.28830779 0.46711335 0
2.934134 0.27787358 0.46680051 0
2.9213617 0.26586497 0.4646104 0
2.9124327 0.25480425 0.46304604 0
2.8896828 0.24265489 0.45929164 0
2.8786981 0.23161522 0.45741442 0
2.87555 0.22126143 0.45678869 0
2.8723648 0.21093379 0.45616296 0
2.849437 0.19925179 0.45240852 0
2.8382888 0.18851925 0.4505313 0
2.835592 0.16846538 0.44990557 0
2.8341625 0.15895124 0.44959271 0
2.7753203 0.58788949 0.55143803 0
2.8004203 0.58299911 0.5560174 0
2.7851276 0.56967872 0.55258286 0
2.7947979 0.56150067 0.55410933 0
2.8121502 0.55478078 0.55716228 0
2.831321 0.54881531 0.56059688 0
2.8486485 0.54186434 0.56364983 0
2.8466628 0.5311963 0.56288654 0
2.8523624 0.52196246 0.56364983 0
2.8754232 0.51581639 0.56784761 0
2.8965423 0.50917441 0.57166374 0
2.9099107 0.50106144 0.57395351 0
2.9193857 0.49220568 0.57547992 0
2.9307718 0.48360956 0.57738805 0
2.9460089 0.47556704 0.58005941 0
2.9708397 0.46947297 0.58463877 0
2.997684 0.46299493 0.58959985 0
2.9933789 0.45217115 0.58845496 0
2.9775357 0.43862244 0.58502042 0
2.9848783 0.42906344 0.58616525 0
2.9746926 0.41700697 0.58387554 0
2.9741137 0.40687472 0.58349395 0
2.9540408 0.394153 0.57929617 0
2.9398899 0.38130373 0.57624322 0
2.9353595 0.37030131 0.57509834 0
2.9326742 0.36008736 0.5743351 0
2.9202666 0.3482216 0.57166374 0
2.9058628 0.33621988 0.56861085 0
2.8914671 0.32381973 0.5655579 0
2.8848271 0.31237367 0.56403142 0
2.8819947 0.30189335 0.56326818 0
2.8849335 0.29253197 0.56364983 0
2.8624411 0.28066516 0.55907035 0
2.8478138 0.2686972 0.5560174 0
2.8330927 0.25733331 0.55296451 0
2.8398409 0.24795531 0.55410933 0
2.8309073 0.23722045 0.55220127 0
2.8238904 0.22670811 0.5506748 0
2.8485892 0.50997645 0.66810459 0
2.8424773 0.48842704 0.66585511 0
2.8691473 0.48270565 0.67170382 0
2.855432 0.47015393 0.66810459 0
2.8628278 0.46111268 0.66945434 0
2.8874404 0.45526072 0.67485321 0
2.9121242 0.4487395 0.68025202 0
2.9290121 0.44140387 0.68385124 0
2.917114 0.42868146 0.68070191 0
2.8973734 0.41545421 0.675753 0
2.8890858 0.40449211 0.67350346 0
2.8904114 0.39490855 0.67350346 0
2.8975673 0.3855899 0.67485321 0
2.8835001 0.37296522 0.67125398 0
2.8557818 0.3592512 0.66450542 0
2.847286 0.34859422 0.66225594 0
2.8465502 0.33842239 0.66180599 0
