# .PCD v0.7 - Point Cloud Data file format
VERSION 0.7
FIELDS x y z rgb
SIZE 4 4 4 4
TYPE F F F U
COUNT 1 1 1 1
WIDTH 423
HEIGHT 1
VIEWPOINT 0 0 0 1 0 0 0
POINTS 423
DATA ascii
2.90836 0.84826148 0.052880794 4287099543
2.8911281 0.82137865 0.052461933 4287099543
2.8997543 0.81290036 0.052566648 4287099543
2.9024339 0.80328047 0.052566648 4287099543
2.9012239 0.79259652 0.052496839 4287099543
2.9001112 0.78142458 0.052427031 4287099543
2.8913593 0.76771009 0.052217599 4287099543
2.8901525 0.75660044 0.052147791 4287099543
2.9082663 0.75050396 0.052427031 4287099543
2.906992 0.73936385 0.052357223 4287099543
2.8998566 0.72678053 0.052182697 4287099543
2.8946104 0.71473545 0.052043077 4287099543
2.9106889 0.70793575 0.052287407 4287099543
2.9091313 0.69734794 0.052217599 4287099543
2.9153199 0.68861568 0.052287407 4287099543
3.0266998 0.71380889 0.16297418 4287099543
2.9021246 0.6748113 0.052008174 4287099543
3.0408463 0.70594859 0.16360222 4287099543
2.9083607 0.6655696 0.052077983 4287099543
3.0510805 0.69710988 0.1640209 4287099543
2.9184699 0.65716982 0.052217599 4287099543
3.0495977 0.6855799 0.16381156 4287099543
2.9129362 0.64525062 0.052077983 4287099543
3.0557547 0.67632562 0.1640209 4287099543
2.9189675 0.63643855 0.052147791 4287099543
3.0698066 0.66820294 0.16464894 4287099543
2.9113953 0.62414896 0.051973268 4287099543
3.079932 0.65915722 0.16506761 4287099543
2.9174697 0.61480635 0.052043077 4287099543
3.0763512 0.64716804 0.16475362 4287099543
2.9197032 0.60410982 0.052043077 4287099543
3.0669661 0.63346493 0.16412558 4287099543
2.9257135 0.59471178 0.052112885 4287099543
3.0691588 0.62275451 0.16412558 4287099543
2.9316936 0.58527911 0.052182697 4287099543
3.0672898 0.61179125 0.16391623 4287099543
2.8365886 0.56114513 -0.05047236 4287099543
2.9238071 0.57362837 0.052008174 4287099543
3.0752869 0.60223281 0.16423026 4287099543
2.8169365 0.54704732 -0.050088406 4287099543
2.9238281 0.5630399 0.051973268 4287099543
3.0734472 0.59074104 0.1640209 4287099543
2.8266864 0.53870773 -0.050228026 4287099543
2.9257755 0.55283105 0.051973268 4287099543
3.063715 0.57778752 0.16339287 4287099543
2.8246181 0.52810305 -0.050158214 4287099543
2.9355519 0.54407305 0.052112885 4287099543
3.065614 0.56762528 0.16339287 4287099543
2.8125861 0.51620573 -0.049913883 4287099543
2.9373403 0.5343346 0.052112885 4287099543
3.071507 0.55763358 0.16360222 4287099543
2.816339 0.5067395 -0.049948789 4287099543
2.9273756 0.5219726 0.05190346 4287099543
3.0734348 0.54690927 0.16360222 4287099543
2.814152 0.49621031 -0.049878977 4287099543
2.9331198 0.51243854 0.051973268 4287099543
3.0871305 0.5382365 0.16423026 4287099543
2.8276899 0.48842826 -0.050088406 4287099543
2.9427743 0.50354803 0.052112885 4287099543
3.0653653 0.52342224 0.16297418 4287099543
3.1993928 0.54573172 0.2839534 4287099543
2.8234627 0.47755358 -0.049983691 4287099543
2.9405696 0.49261114 0.052043077 4287099543
3.0711136 0.5133782 0.16318353 4287099543
3.2169991 0.53718781 0.28534791 4287099543
2.8152483 0.46606117 -0.049809169 4287099543
2.9580584 0.4849309 0.052322313 4287099543
3.084625 0.50512838 0.16381156 4287099543
3.2286866 0.52756071 0.28621945 4287099543
2.8148041 0.45640478 -0.049774267 4287099543
2.9438548 0.47258246 0.052043077 4287099543
3.0942581 0.4956207 0.16423026 4287099543
3.2324755 0.51660246 0.28639376 4287099543
2.8203304 0.44720209 -0.049844075 4287099543
2.9415355 0.46168554 0.051973268 4287099543
3.0959694 0.48481587 0.16423026 4287099543
3.2538555 0.50895995 0.2881369 4287099543
2.8317547 0.43888512 -0.050018597 4287099543
2.9431293 0.45141405 0.051973268 4287099543
3.0818486 0.47158974 0.16339287 4287099543
3.2655473 0.49853161 0.28900844 4287099543
2.8451324 0.43079463 -0.050228026 4287099543
2.95663 0.44240007 0.052182697 4287099543
3.0835562 0.46029174 0.16339287 4287099543
3.2574143 0.48566133 0.2881369 4287099543
2.8308666 0.41802612 -0.049948789 4287099543
2.9581563 0.43207607 0.052182697 4287099543
3.0930498 0.45067635 0.16381156 4287099543
3.2452881 0.47228003 0.2869167 4287099543
2.8323083 0.40814263 -0.049948789 4287099543
2.9517274 0.42061973 0.052043077 4287099543
3.1063914 0.44210461 0.16443959 4287099543
3.2232456 0.45758918 0.28482497 4287099543
2.8376067 0.39930457 -0.050018597 4287099543
2.9531062 0.41082832 0.052043077 4287099543
3.1118722 0.43180826 0.16464894 4287099543
2.8508699 0.39102808 -0.050228026 4287099543
2.9624488 0.40159124 0.052182697 4287099543
3.101485 0.41933817 0.1640209 4287099543
2.8522174 0.38107488 -0.050228026 4287099543
2.9757271 0.39282018 0.052392125 4287099543
3.1029301 0.4085086 0.1640209 4287099543
2.8455985 0.37008414 -0.050088406 4287099543
2.9731135 0.38192022 0.052322313 4287099543
3.1082993 0.39818308 0.16423026 4287099543
2.8468728 0.36014947 -0.050088406 4287099543
2.962523 0.37005186 0.052112885 4287099543
3.1175978 0.38831729 0.16464894 4287099543
2.8600211 0.35167336 -0.050297838 4287099543
2.967767 0.36019096 0.052182697 4287099543
3.1267993 0.37893859 0.16506761 4287099543
2.8651428 0.34266278 -0.050367646 4287099543
2.9709311 0.35058242 0.052217599 4287099543
3.1201687 0.36708894 0.16464894 4287099543
2.8702941 0.33311975 -0.050437454 4287099543
2.9860437 0.3418009 0.052461933 4287099543
3.1214314 0.35619444 0.16464894 4287099543
2.8555419 0.32131034 -0.050158214 4287099543
2.9892061 0.3315967 0.052496839 4287099543
3.1266258 0.34573463 0.16485828 4287099543
2.864598 0.3122066 -0.050297838 4287099543
2.9904015 0.32063773 0.052496839 4287099543
3.141715 0.33630732 0.16559097 4287099543
2.8815799 0.30388373 -0.050577074 4287099543
2.9874704 0.31030542 0.052427031 4287099543
3.1447997 0.32609379 0.16569565 4287099543
2.8706355 0.29310822 -0.050367646 4287099543
2.9845035 0.29999894 0.052357223 4287099543
3.1379697 0.31431732 0.16527697 4287099543
2.8875613 0.28465471 -0.050646886 4287099543
3.0014553 0.29112285 0.052636456 4287099543
3.1390474 0.30336252 0.16527697 4287099543
2.892519 0.27495119 -0.050716694 4287099543
3.004493 0.28030643 0.052671362 4287099543
3.1361609 0.2914848 0.16506761 4287099543
2.8935075 0.26434836 -0.050716694 4287099543
2.9994783 0.26927987 0.052566648 4287099543
3.1411378 0.28089225 0.16527697 4287099543
3.0043845 0.25915241 0.052636456 4287099543
3.1341395 0.26924127 0.16485828 4287099543
3.005271 0.24866278 0.052636456 4287099543
3.1191361 0.2569896 0.1640209 4287099543
3.0120592 0.23917104 0.05274117 4287099543
3.0268338 0.22971402 0.052985508 4287099543
3.0136557 0.21813709 0.05274117 4287099543
3.0143986 0.20761532 0.05274117 4287099543
3.0270777 0.19787511 0.052950602 4287099543
3.0297461 0.1874301 0.052985508 4287099543
3.0423594 0.17755283 0.053194933 4287099543
3.0349448 0.16702266 0.053055316 4287099543
3.0355091 0.15642834 0.053055316 4287099543
3.0480211 0.14640632 0.053264745 4287099543
3.044518 0.13559 0.053194933 4287099543
3.048969 0.12512501 0.053264745 4287099543
3.0294042 0.11373033 0.052915696 4287099543
3.0257857 0.1030196 0.052845888 4287099543
3.0281258 0.092517287 0.052880794 4287099543
3.0164363 0.081622675 0.052671362 4287099543
3.1499317 0.49157661 0.39144436 4289616929
3.1496656 0.48027965 0.3912006 4289616929
3.0816886 0.46881208 0.49370724 4289616929
2.9950037 0.45455673 0.58883661 4289616929
2.9171426 0.44169801 0.68115181 4289616929
3.1415873 0.46727282 0.38998193 4289616929
3.0775244 0.45664483 0.49276862 4289616929
2.9926882 0.44352305 0.58807337 4289616929
2.9051723 0.4295167 0.67800248 4289616929
3.1451638 0.45658815 0.39022568 4289616929
3.0575948 0.44278595 0.48932707 4289616929
2.9845026 0.43166932 0.58616525 4289616929
2.9066536 0.41937378 0.67800248 4289616929
3.1310148 0.44337925 0.38827574 4289616929
3.0551343 0.4320915 0.48870131 4289616929
2.9743276 0.4196026 0.58387554 4289616929
2.9003811 0.40813813 0.67620283 4289616929
3.2149556 0.44496852 0.2839534 4289616929
3.1128037 0.43027651 0.38583836 4289616929
3.0487967 0.42034447 0.48744985 4289616929
2.9620881 0.40786299 0.58120424 4289616929
2.9075103 0.3993139 0.67755258 4289616929
3.2085156 0.43323761 0.28325617 4289616929
3.0985479 0.41728923 0.38388845 4289616929
3.0424142 0.40864694 0.48619837 4289616929
2.9518187 0.39595547 0.57891452 4289616929
2.8837767 0.38580227 0.67170382 4289616929
3.1981556 0.42047906 0.28221029 4289616929
3.092113 0.40543762 0.38291353 4289616929
3.0203176 0.39495155 0.48244393 4289616929
2.9590232 0.38641113 0.58005941 4289616929
2.8754435 0.37447596 0.66945434 4289616929
3.1798413 0.40678382 0.28046718 4289616929
3.089571 0.39413995 0.38242605 4289616929
3.0138397 0.38340831 0.48119247 4289616929
2.9428256 0.37385368 0.57662481 4289616929
2.8593338 0.36223149 0.66540521 4289616929
3.169379 0.39420527 0.2794213 4289616929
3.0791082 0.38188612 0.38096359 4289616929
3.0033967 0.37143305 0.47931525 4289616929
2.928525 0.3616533 0.57357186 4289616929
2.8625145 0.35248846 0.66585511 4289616929
3.1529336 0.38098922 0.27785251 4289616929
3.0567725 0.36828548 0.37803873 4289616929
3.0026507 0.36123461 0.47900239 4289616929
2.9102767 0.34908965 0.56975567 4289616929
2.8598578 0.3420307 0.66495532 4289616929
3.1542444 0.36998025 0.27785251 4289616929
3.0461471 0.35676193 0.3765763 4289616929
2.9940832 0.3496049 0.47743803 4289616929
2.9114182 0.33943748 0.56975567 4289616929
3.1415968 0.35794017 0.27663234 4289616929
3.0454013 0.34590334 0.37633255 4289616929
2.9756567 0.33692962 0.47430936 4289616929
2.9047823 0.32839113 0.5682292 4289616929
3.1230836 0.34424105 0.2748892 4289616929
3.0386977 0.33440143 0.3753576 4289616929
2.9669969 0.32546422 0.472745 4289616929
2.896208 0.31667605 0.56632113 4289616929
3.1044548 0.33122277 0.27314609 4289616929
3.0320067 0.3224228 0.37438264 4289616929
2.9582932 0.314062 0.47118065 4289616929
2.8836296 0.30511764 0.56364983 4289616929
3.1015725 0.32051578 0.27279747 4289616929
3.0113382 0.31013015 0.37170154 4289616929
2.9534235 0.30364332 0.47024205 4289616929
2.863142 0.2933529 0.559452 4289616929
3.0986531 0.30983445 0.27244884 4289616929
2.9945722 0.2983703 0.36950788 4289616929
2.9524996 0.29313755 0.46992919 4289616929
2.858238 0.2832751 0.55830717 4289616929
3.0878687 0.29732868 0.27140298 4289616929
2.9896677 0.28734636 0.36877668 4289616929
2.9299085 0.28056926 0.46617478 4289616929
2.8631659 0.2731708 0.55907035 4289616929
3.0730166 0.2850765 0.27000847 4289616929
2.9867473 0.27602065 0.36828917 4289616929
2.9191146 0.26874277 0.46429756 4289616929
2.8484619 0.26173693 0.5560174 4289616929
3.0541482 0.27257603 0.26826537 4289616929
2.9718742 0.26418769 0.36633927 4289616929
2.9141321 0.25802809 0.46335894 4289616929
2.8278463 0.249892 0.55181968 4289616929
3.0511107 0.26157221 0.26791674 4289616929
2.9569554 0.25246057 0.36438939 4289616929
2.8992684 0.24651742 0.46085599 4289616929
2.826745 0.23985268 0.55143803 4289616929
3.0460482 0.25043112 0.2673938 4289616929
2.943969 0.2410056 0.36268318 4289616929
2.8961737 0.23607385 0.46023026 4289616929
2.8177812 0.22918752 0.54952991 4289616929
3.1040428 0.24538469 0.16318353 4289616929
3.0389171 0.23970264 0.26669657 4289616929
2.944752 0.2312409 0.36268318 4289616929
2.8772473 0.22492816 0.45710155 4289616929
3.086956 0.23319322 0.16224147 4289616929
3.0178809 0.22744548 0.26477915 4289616929
2.9415824 0.22066261 0.36219573 4289616929
2.8701348 0.21429697 0.45585006 4289616929
3.0837672 0.2221285 0.16203214 4289616929
3.0047457 0.21591078 0.26355895 4289616929
2.9304545 0.20954295 0.36073327 4289616929
2.8629842 0.20371543 0.45459861 4289616929
3.0725682 0.21054566 0.1614041 4289616929
2.9955423 0.20474085 0.26268741 4289616929
2.9113631 0.19796638 0.35829589 4289616929
2.8479106 0.19265316 0.45209566 4289616929
3.0573399 0.19878161 0.16056673 4289616929
2.9922624 0.19402601 0.26233879 4289616929
2.9001503 0.18703671 0.35683349 4289616929
2.8525083 0.1829644 0.45272139 4289616929
3.0420673 0.18712793 0.15972935 4289616929
2.9929214 0.18357907 0.26233879 4289616929
2.8908784 0.17630856 0.35561478 4289616929
2.8294687 0.17157069 0.44896698 4289616929
3.0386834 0.17680618 0.15952002 4289616929
2.9696751 0.17175089 0.26024702 4289616929
2.8954399 0.1664435 0.35610226 4289616929
2.8241057 0.16184838 0.44802836 4289616929
3.0352936 0.16597921 0.15931067 4289616929
2.9622986 0.160952 0.2595498 4289616929
2.886065 0.15630341 0.35488355 4289616929
3.0238864 0.15477258 0.15868263 4289616929
2.9548569 0.15072095 0.25885254 4289616929
2.864785 0.14512408 0.35220242 4289616929
3.0084484 0.14345446 0.15784526 4289616929
2.9474044 0.14002669 0.25815532 4289616929
2.8513937 0.13446924 0.35049626 4289616929
2.9929683 0.13224603 0.15700789 4289616929
2.9399135 0.12938911 0.25745806 4289616929
2.8558123 0.12468761 0.35098374 4289616929
2.9894204 0.12163603 0.15679854 4289616929
2.9124768 0.11799616 0.2550177 4289616929
2.8443291 0.11424082 0.34952128 4289616929
2.9858351 0.11105102 0.1565892 4289616929
2.9088888 0.10768081 0.25466907 4289616929
2.9822125 0.10049393 0.15637985 4289616929
2.9012816 0.097259842 0.25397182 4289616929
2.954596 0.089239918 0.15491444 4289616929
2.8996122 0.087071314 0.25379753 4289616929
2.9508965 0.07881847 0.15470509 4289616929
2.9098568 0.077214107 0.25466907 4289616929
3.0027089 0.0707637 0.052427031 4289616929
2.9391735 0.068239912 0.15407708 4289616929
2.8571496 0.81064618 0.15564716 4283287511
2.8559754 0.80009001 0.1554378 4283287511
2.8720877 0.79434228 0.15617052 4283287511
2.7962241 0.77230984 0.25379753 4283287511
2.886404 0.78746521 0.15679854 4283287511
2.8083811 0.7656526 0.25466907 4283287511
2.9084215 0.78257507 0.15784526 4283287511
2.8111684 0.75535482 0.25466907 4283287511
2.918993 0.77395672 0.15826395 4283287511
2.8330474 0.75063962 0.25641218 4283287511
2.7596033 0.73014921 0.35049626 4283287511
2.9255416 0.7647723 0.15847328 4283287511
2.8549273 0.74578208 0.25815532 4283287511
2.7602146 0.7200101 0.35025251 4283287511
2.9397972 0.75754797 0.15910132 4283287511
2.8613722 0.73680484 0.25850391 4283287511
2.7684782 0.71185571 0.35098374 4283287511
2.9579103 0.75121379 0.15993871 4283287511
2.8677883 0.72779447 0.25885254 4283287511
2.7844164 0.70560026 0.35268989 4283287511
2.9760144 0.74476379 0.16077606 4283287511
2.8780434 0.71971232 0.2595498 4283287511
2.8022699 0.69972438 0.3546398 4283287511
2.9824746 0.73532641 0.16098543 4283287511
2.8960147 0.71347368 0.26094431 4283287511
2.8008404 0.68898934 0.35415235 4283287511
2.7624326 0.67851877 0.4505313 4283287511
2.9926596 0.72731942 0.1614041 4283287511
2.9139771 0.70711976 0.26233879 4283287511
2.8109453 0.68107736 0.35512727 4283287511
2.7493083 0.66563648 0.44802836 4283287511
2.9969976 0.71785587 0.16150878 4283287511
2.9318078 0.70116079 0.2637333 4283287511
2.8286347 0.67544121 0.35707721 4283287511
2.7668722 0.66018265 0.4505313 4283287511
2.930238 0.69051981 0.26338464 4283287511
2.8540471 0.67151374 0.36000207 4283287511
2.7653136 0.64961755 0.44990557 4283287511
2.9481578 0.6838882 0.26477915 4283287511
2.8602419 0.66244221 0.36048955 4283287511
2.7810364 0.64307666 0.45209566 4283287511
2.9621813 0.67625433 0.265825 4283287511
2.8702784 0.65421927 0.3614645 4283287511
2.7967472 0.63643259 0.45428574 4283287511
2.9839635 0.67027611 0.26756814 4283287511
2.8764181 0.64506549 0.36195198 4283287511
2.8085902 0.62882346 0.45585006 4283287511
2.9979575 0.66243738 0.26861399 4283287511
2.8941603 0.63844121 0.36390188 4283287511
2.8106599 0.6195069 0.45585006 4283287511
3.0002518 0.6519677 0.26861399 4283287511
2.9079013 0.63136667 0.36536431 4283287511
2.8263192 0.61262196 0.45804018 4283287511
3.0140874 0.64451379 0.26965985 4283287511
2.9217353 0.62370086 0.36682677 4283287511
2.8496923 0.60728055 0.46148172 4283287511
2.7708626 0.58997756 0.5506748 4283287511
3.0320282 0.63673884 0.27105436 4283287511
2.9277802 0.61431277 0.36731425 4283287511
2.8653288 0.60016501 0.46367183 4283287511
2.7691634 0.57901222 0.54991156 4283287511
3.0537453 0.63017708 0.27279747 4283287511
2.937789 0.60518056 0.36828917 4283287511
2.8791184 0.59204555 0.46554902 4283287511
2.7807829 0.57132 0.55181968 4283287511
3.0715475 0.62268114 0.27419198 4283287511
2.9515579 0.59728366 0.36975163 4283287511
2.8831038 0.58238369 0.46586189 4283287511
2.8000805 0.56510448 0.55525422 4283287511
3.0737023 0.6119563 0.27419198 4283287511
2.9769886 0.59162092 0.37267649 4283287511
2.898582 0.57551324 0.46805197 4283287511
2.8193681 0.55876255 0.55868876 4283287511
3.0836415 0.60275137 0.2748892 4283287511
2.990624 0.58402765 0.37413892 4283287511
2.9102676 0.56728071 0.46961632 4283287511
2.8154244 0.54828346 0.55754393 4283287511
3.1051898 0.59627873 0.27663234 4283287511
2.9965436 0.57433283 0.3746264 4283287511
2.931632 0.56083077 0.472745 4283287511
2.8211777 0.53919011 0.55830717 4283287511
3.1229157 0.58838779 0.27802682 4283287511
3.0063341 0.56533617 0.37560135 4283287511
2.9471624 0.55314404 0.47493511 4283287511
2.8481278 0.534042 0.56326818 4283287511
3.1425834 0.58074242 0.27959561 4283287511
3.023906 0.55771965 0.37755126 4283287511
2.9470377 0.54301047 0.47462222 4283287511
2.8596292 0.52587295 0.56517625 4283287511
3.1426308 0.56941462 0.2794213 4283287511
3.0452726 0.55122387 0.37998864 4283287511
2.9625223 0.5351789 0.4768123 4283287511
2.8845417 0.52057046 0.56975567 4283287511
3.1621566 0.56212771 0.28099012 4283287511
3.0667241 0.54405725 0.38242605 4283287511
2.9682629 0.52552247 0.47743803 4283287511
2.8863413 0.51049757 0.56975567 4283287511
3.1856909 0.55484599 0.28290752 4283287511
3.0646923 0.53267133 0.38193855 4283287511
3.0031669 0.52089626 0.48275682 4283287511
2.8919744 0.5010916 0.57051897 4283287511
2.8458049 0.49206734 0.66675496 4283287511
3.0821888 0.5246343 0.38388845 4283287511
3.0010717 0.50974911 0.48213109 4283287511
2.9111264 0.49394873 0.57395351 4283287511
2.8455834 0.48180589 0.66630501 4283287511
3.1035824 0.51713556 0.38632584 4283287511
3.0047812 0.4995935 0.48244393 4283287511
2.9380102 0.48796484 0.57891452 4283287511
2.8376355 0.47027621 0.66405553 4283287511
3.1171241 0.50821465 0.3877883 4283287511
3.0259182 0.49280241 0.48557264 4283287511
2.9513226 0.47959635 0.58120424 4283287511
2.8546486 0.46286532 0.66765475 4283287511
3.1423154 0.5016309 0.39071316 4283287511
3.0412753 0.48441267 0.48776269 4283287511
2.9606521 0.47104123 0.58273071 4283287511
2.8773391 0.45675635 0.67260367 4283287511
3.058563 0.47622412 0.49026567 4283287511
2.9719782 0.46221146 0.58463877 4283287511
2.9058757 0.45089224 0.67890227 4283287511
