# .PCD v0.7 - Point Cloud Data file format
VERSION 0.7
FIELDS x y z intensity
SIZE 4 4 4 4
TYPE F F F F
COUNT 1 1 1 1
WIDTH 164
HEIGHT 1
VIEWPOINT 0 0 0 1 0 0 0
POINTS 164
DATA ascii
3.2507789 0.50195682 0.29360765 100
3.2543321 0.50877488 0.2976175 100
2.8941553 0.84418935 0.066064931 100
2.8998673 0.83877933 0.069721647 100
2.9055793 0.83336926 0.073378369 100
2.9112914 0.82795924 0.077035092 100
2.9170034 0.82254916 0.080691814 100
2.9227154 0.81713909 0.08434853 100
2.9284275 0.81172907 0.088005252 100
2.9341395 0.806319 0.091661975 100
2.9398515 0.80090898 0.095318697 100
2.9455636 0.79549891 0.098975413 100
2.9512756 0.79008889 0.10263214 100
2.9569876 0.78467882 0.10628886 100
2.9626997 0.77926874 0.10994557 100
2.9684117 0.77385873 0.1136023 100
2.9741237 0.76844865 0.11725902 100
2.9798357 0.76303864 0.12091574 100
2.9855478 0.75762856 0.12457247 100
2.9912598 0.75221848 0.12822919 100
2.9969718 0.74680847 0.13188592 100
3.0026839 0.74139839 0.13554263 100
3.0083959 0.73598832 0.13919936 100
3.0141079 0.7305783 0.14285608 100
3.01982 0.72516823 0.14651281 100
3.025532 0.71975815 0.15016952 100
3.031244 0.71434814 0.15382625 100
3.0369561 0.70893806 0.15748297 100
3.0426681 0.70352805 0.1611397 100
3.0483801 0.69811797 0.16479641 100
3.0540922 0.69270796 0.16845313 100
3.0598042 0.68729788 0.17210984 100
3.0655162 0.68188787 0.17576656 100
3.0712283 0.67647779 0.17942327 100
3.0769403 0.67106777 0.18307999 100
3.0826523 0.6656577 0.18673672 100
3.0883644 0.66024768 0.19039343 100
3.0940764 0.65483761 0.19405015 100
3.0997884 0.64942759 0.19770686 100
3.1055005 0.64401752 0.20136358 100
3.1112125 0.6386075 0.20502029 100
3.1169245 0.63319743 0.20867702 100
3.1226366 0.62778741 0.21233374 100
3.1283486 0.62237734 0.21599045 100
3.1340606 0.61696726 0.21964717 100
3.1397727 0.61155725 0.22330388 100
3.1454847 0.60614717 0.2269606 100
3.1511967 0.60073715 0.23061731 100
3.1569088 0.59532708 0.23427404 100
3.1626208 0.58991706 0.23793076 100
3.1683328 0.58450699 0.24158747 100
3.1740448 0.57909697 0.24524419 100
3.1797569 0.5736869 0.24890091 100
3.1854689 0.56827688 0.25255764 100
3.1911809 0.56286681 0.25621435 100
3.196893 0.55745679 0.25987107 100
3.202605 0.55204672 0.26352778 100
3.2083168 0.5466367 0.2671845 100
3.2140288 0.54122663 0.27084121 100
3.2197409 0.53581661 0.27449793 100
3.2254529 0.53040653 0.27815464 100
3.2311649 0.52499652 0.28181136 100
3.236877 0.51958644 0.28546807 100
3.0411494 0.099691592 0.057027005 100
3.0447025 0.10650965 0.061036848 100
3.0482557 0.1133277 0.06504669 100
3.0518086 0.12014577 0.069056533 100
3.0553617 0.12696382 0.073066376 100
3.0589147 0.13378188 0.077076219 100
3.0624678 0.14059994 0.081086069 100
3.0660207 0.14741799 0.085095912 100
3.0695739 0.15423605 0.089105755 100
3.0731268 0.1610541 0.093115598 100
3.0766799 0.16787216 0.097125433 100
3.0802329 0.17469022 0.10113528 100
3.083786 0.18150827 0.10514512 100
3.0873392 0.18832634 0.10915497 100
3.0908921 0.1951444 0.11316481 100
3.0944452 0.20196246 0.11717466 100
3.0979981 0.20878053 0.12118451 100
3.1015513 0.21559858 0.12519436 100
3.1051042 0.22241665 0.1292042 100
3.1086574 0.22923471 0.13321404 100
3.1122103 0.23605277 0.13722388 100
3.1157634 0.24287084 0.14123373 100
3.1193166 0.24968889 0.14524359 100
3.1228695 0.25650695 0.14925343 100
3.1264226 0.26332501 0.15326327 100
3.1299756 0.27014306 0.15727311 100
3.1335287 0.27696112 0.16128296 100
3.1370816 0.28377917 0.1652928 100
3.1406348 0.29059723 0.16930263 100
3.1441877 0.29741529 0.17331247 100
3.1477408 0.30423334 0.17732231 100
3.1512938 0.3110514 0.18133216 100
3.1548469 0.31786942 0.185342 100
3.1583998 0.32468748 0.18935183 100
3.161953 0.33150554 0.19336167 100
3.1655061 0.33832359 0.19737151 100
3.169059 0.34514165 0.20138136 100
3.1726122 0.35195971 0.2053912 100
3.1761651 0.35877773 0.20940103 100
3.1797183 0.36559579 0.21341087 100
3.1832712 0.37241384 0.21742071 100
3.1868243 0.3792319 0.22143055 100
3.1903772 0.38604996 0.22544038 100
3.1939304 0.39286801 0.22945023 100
3.1974833 0.39968604 0.23346007 100
3.2010365 0.40650409 0.23746991 100
3.2045894 0.41332215 0.24147975 100
3.2081425 0.42014021 0.24548958 100
3.2116957 0.42695826 0.24949943 100
3.2152486 0.43377632 0.25350925 100
3.2188017 0.44059435 0.2575191 100
3.2223547 0.4474124 0.26152894 100
3.2259078 0.45423046 0.26553878 100
3.2294607 0.46104851 0.26954862 100
3.2330139 0.46786657 0.27355847 100
3.2365668 0.47468463 0.27756831 100
3.2401199 0.48150265 0.28157815 100
3.2436728 0.48832071 0.285588 100
3.247226 0.49513876 0.28959781 100
3.1595812 0.48304608 0.40020171 100
3.1542823 0.4817951 0.40619072 100
3.1489837 0.48054409 0.41217971 100
3.1436849 0.47929311 0.41816872 100
3.138386 0.4780421 0.42415771 100
3.1330874 0.47679111 0.43014672 100
3.1277885 0.4755401 0.43613571 100
3.1224897 0.47428912 0.44212472 100
3.1171911 0.47303814 0.44811371 100
3.1118922 0.47178712 0.45410272 100
3.1065934 0.47053614 0.46009171 100
3.1012948 0.46928513 0.46608073 100
3.0959959 0.46803415 0.47206971 100
3.0906971 0.46678314 0.47805873 100
3.0853984 0.46553215 0.48404774 100
3.0800996 0.46428114 0.49003673 100
3.074801 0.46303016 0.49602574 100
3.0695021 0.46177918 0.50201476 100
3.0642033 0.46052817 0.50800377 100
3.0589046 0.45927718 0.51399273 100
3.0536058 0.45802617 0.51998174 100
3.0483069 0.45677519 0.52597076 100
3.0430083 0.45552418 0.53195977 100
3.0377095 0.45427319 0.53794879 100
3.0324106 0.45302218 0.54393774 100
3.027112 0.4517712 0.54992676 100
3.0218132 0.45052022 0.55591577 100
3.0165143 0.44926921 0.56190479 100
3.0112157 0.44801822 0.56789374 100
3.0059168 0.44676721 0.57388276 100
3.000618 0.44551623 0.57987171 100
2.9953194 0.44426525 0.58586073 100
2.9900205 0.44301423 0.59184974 100
2.9847217 0.44176325 0.5978387 100
2.979423 0.44051224 0.60382771 100
2.9741242 0.43926126 0.60981673 100
2.9688256 0.43801028 0.61580569 100
2.9635267 0.43675926 0.6217947 100
2.9582279 0.43550828 0.62778372 100
2.9529293 0.43425727 0.63377267 100
2.9476304 0.43300629 0.63976169 100
2.9423316 0.4317553 0.6457507 100
