# .PCD v0.7 - Point Cloud Data file format
VERSION 0.7
FIELDS x y z rgb
SIZE 4 4 4 4
TYPE F F F U
COUNT 1 1 1 1
WIDTH 1098
HEIGHT 1
VIEWPOINT 0 0 0 1 0 0 0
POINTS 1098
DATA ascii
3.1131048 -1.0914139 -0.52249116 4292016541
3.3771517 -1.1853092 -0.4394609 4292016541
3.7143435 -1.3051127 -0.34443948 4292016541
4.1205082 -1.4494433 -0.22891749 4292016541
2.467819 -0.87293118 -0.70139962 4292016541
2.6562493 -0.94062722 -0.65055847 4292016541
2.8535182 -1.0110444 -0.58845496 4292016541
3.1090837 -1.1028166 -0.52249116 4292016541
3.3879597 -1.202402 -0.44141081 4292016541
3.7191522 -1.3214054 -0.34531105 4292016541
4.1210685 -1.4658258 -0.22923151 4292016541
2.468549 -0.88241059 -0.70243496 4292016541
2.6494458 -0.94811726 -0.64965868 4292016541
2.8538465 -1.021825 -0.5892182 4292016541
3.1016903 -1.1117876 -0.52186543 4292016541
3.3839538 -1.2136302 -0.44141081 4292016541
3.7222507 -1.3364246 -0.3460083 4292016541
4.1143055 -1.4788082 -0.22912684 4292016541
2.4710598 -0.89256048 -0.70398778 4292016541
2.6481194 -0.95756054 -0.65010852 4292016541
2.8689039 -1.0379623 -0.59303439 4292016541
3.1091299 -1.1261032 -0.52374262 4292016541
3.3834293 -1.2267884 -0.44189829 4292016541
3.7344186 -1.3555276 -0.3475771 4292016541
4.1131344 -1.4938072 -0.2293362 4292016541
2.4786592 -0.90558904 -0.70709366 4292016541
2.6539125 -0.97014374 -0.65235806 4292016541
2.8613927 -1.047121 -0.59227115 4292016541
3.1198206 -1.1429272 -0.52624559 4292016541
3.3772624 -1.2379079 -0.44165453 4292016541
3.7352755 -1.3706139 -0.34810004 4292016541
4.1320028 -1.5178252 -0.2306969 4292016541
2.4646096 -0.91021997 -0.70398778 4292016541
2.6613059 -0.98391885 -0.65505749 4292016541
2.8577201 -1.0571028 -0.59227115 4292016541
3.1195171 -1.1551825 -0.52687138 4292016541
3.3968997 -1.2592479 -0.44482315 4292016541
3.7286003 -1.3829514 -0.34792572 4292016541
4.1360416 -1.5357153 -0.23122028 4292016541
2.4650373 -0.92016888 -0.70502311 4292016541
2.657855 -0.99320257 -0.65505749 4292016541
2.8650465 -1.071197 -0.59456086 4292016541
3.1117654 -1.1646796 -0.52624559 4292016541
3.3980601 -1.2731872 -0.44555435 4292016541
3.7274814 -1.3973569 -0.34827435 4292016541
4.1437454 -1.5550557 -0.23195298 4292016541
2.4726553 -0.93285924 -0.70812893 4292016541
2.654372 -1.0024741 -0.65505749 4292016541
2.86129 -1.0811913 -0.59456086 4292016541
3.107681 -1.1755346 -0.52624559 4292016541
3.4010212 -1.2878528 -0.44652933 4292016541
3.7374859 -1.4160068 -0.34966883 4292016541
4.1364245 -1.5688025 -0.23184831 4292016541
2.4729941 -0.94286114 -0.70916426 4292016541
2.6526771 -1.0124283 -0.65550733 4292016541
2.8685029 -1.0953747 -0.59685057 4292016541
3.1146297 -1.1906073 -0.52812284 4292016541
3.385381 -1.2954601 -0.44506687 4292016541
3.7511272 -1.4361683 -0.35141194 4292016541
4.1439776 -1.588235 -0.23258102 4292016541
2.4732931 -0.95287687 -0.71019953 4292016541
2.6582179 -1.025188 -0.65775687 4292016541
2.8609984 -1.1039674 -0.59608734 4292016541
3.11414 -1.2028956 -0.52874857 4292016541
3.3863928 -1.3094171 -0.4457981 4292016541
3.7460914 -1.4492534 -0.35141194 4292016541
4.1384082 -1.6026906 -0.23258102 4292016541
2.4699519 -0.96150446 -0.71019953 4292016541
2.6564391 -1.0351681 -0.65820676 4292016541
2.8571274 -1.1139474 -0.59608734 4292016541
3.1246438 -1.2195045 -0.53125149 4292016541
3.3910463 -1.3248417 -0.44701681 4292016541
3.7372987 -1.4608704 -0.35106334 4292016541
4.1569686 -1.6265876 -0.23394175 4292016541
2.4665806 -0.97012031 -0.71019953 4292016541
2.6618755 -1.048004 -0.6604563 4292016541
2.8605285 -1.1267921 -0.59761381 4292016541
3.1111794 -1.2267808 -0.52968717 4292016541
3.4048657 -1.3439587 -0.44945419 4292016541
3.7451482 -1.4790298 -0.35228351 4292016541
4.1661243 -1.6469624 -0.23477912 4292016541
2.4667699 -0.98015112 -0.71123475 4292016541
2.6527689 -1.0551286 -0.65910655 4292016541
2.8675222 -1.1411257 -0.59990352 4292016541
3.1087136 -1.2383645 -0.53000003 4292016541
3.4038413 -1.3573065 -0.44994166 4292016541
3.7455144 -1.4943086 -0.35280645 4292016541
4.1622047 -1.6622357 -0.2348838 4292016541
2.4705045 -0.99163419 -0.71330529 4292016541
2.6472614 -1.0636556 -0.65865672 4292016541
2.8726294 -1.1547896 -0.60181159 4292016541
3.1153672 -1.2536329 -0.53187722 4292016541
3.3845899 -1.3626555 -0.44799173 4292016541
3.7550585 -1.5133317 -0.35420093 4292016541
4.165638 -1.6804904 -0.23540714 4292016541
2.4707837 -1.0012724 -0.71434063 4292016541
2.6581662 -1.0782888 -0.66225594 4292016541
2.8469543 -1.1554495 -0.59723216 4292016541
3.1185133 -1.2669309 -0.53312874 4292016541
3.3947647 -1.3798516 -0.44994166 4292016541
3.7518651 -1.5265265 -0.35437521 4292016541
4.1600423 -1.6942948 -0.23540714 4292016541
2.4674499 -1.0094603 -0.71434063 4292016541
2.659986 -1.089313 -0.66360557 4292016541
2.8612742 -1.1723274 -0.60104835 4292016541
3.1234331 -1.2810133 -0.53469306 4292016541
3.402782 -1.3969704 -0.45164782 4292016541
3.7446709 -1.5388563 -0.35420093 4292016541
4.1654844 -1.7126378 -0.23603518 4292016541
2.4637334 -1.0184972 -0.71434063 4292016541
2.6579683 -1.0993363 -0.66405553 4292016541
2.8515162 -1.1805536 -0.59990352 4292016541
3.1150672 -1.2909402 -0.53406733 4292016541
3.4198897 -1.4179633 -0.45457271 4292016541
3.7447972 -1.5542094 -0.35472387 4292016541
4.1794677 -1.736322 -0.23718657 4292016541
2.4672937 -1.030068 -0.71641117 4292016541
2.6539211 -1.1090709 -0.66405553 4292016541
2.8673024 -1.1988306 -0.6041013 4292016541
3.1141865 -1.3033311 -0.53469306 4292016541
3.4091768 -1.4281874 -0.45384148 4292016541
3.7503746 -1.571893 -0.35576975 4292016541
4.1715398 -1.7501279 -0.2370819 4292016541
2.4708037 -1.0416762 -0.71848166 4292016541
2.6536243 -1.1198434 -0.66495532 4292016541
2.8649092 -1.2095957 -0.60448295 4292016541
3.1150768 -1.3165007 -0.53563172 4292016541
3.4133117 -1.443946 -0.45506018 4292016541
3.7687171 -1.5950698 -0.3580358 4292016541
4.1746006 -1.7685742 -0.23760527 4292016541
2.4742627 -1.0533214 -0.72055227 4292016541
2.6550775 -1.1313913 -0.66630501 4292016541
2.8498333 -1.2149692 -0.60219324 4292016541
3.1177297 -1.3304676 -0.53688318 4292016541
3.4027743 -1.4535124 -0.45432895 4292016541
3.7686226 -1.6105644 -0.35855874 4292016541
4.1812558 -1.7886343 -0.23833798 4292016541
2.4634712 -1.0589001 -0.71848166 4292016541
2.6566818 -1.1424992 -0.66765475 4292016541
2.8563945 -1.2295669 -0.60448295 4292016541
3.1151149 -1.3415804 -0.53719604 4292016541
3.4070499 -1.4687176 -0.45554763 4292016541
3.7629778 -1.6237094 -0.35855874 4292016541
4.1918044 -1.8096145 -0.23928 4292016541
2.4652634 -1.0693698 -0.7200346 4292016541
2.6598275 -1.1548703 -0.66945434 4292016541
2.8595042 -1.242161 -0.60600942 4292016541
3.1122243 -1.3532337 -0.5375089 4292016541
3.4273851 -1.4916921 -0.45896 4292016541
3.7648795 -1.6393605 -0.35925597 4292016541
4.20011 -1.8306196 -0.2401174 4292016541
2.4632852 -1.0787437 -0.72055227 4292016541
2.6539953 -1.1633655 -0.66900444 4292016541
2.8605447 -1.2545005 -0.60715425 4292016541
3.1129079 -1.3664709 -0.5384475 4292016541
3.4294267 -1.5068411 -0.45993495 4292016541
3.7700779 -1.6573035 -0.36030185 4292016541
4.1863818 -1.8420522 -0.23969871 4292016541
2.4701059 -1.0920224 -0.72365808 4292016541
2.646354 -1.1710452 -0.66810459 4292016541
2.8651242 -1.2684519 -0.60906237 4292016541
3.1171491 -1.3813304 -0.54001182 4292016541
3.4078145 -1.511559 -0.45774129 4292016541
3.7806602 -1.6777267 -0.36187065 4292016541
4.1963539 -1.8639507 -0.24064074 4292016541
2.4645147 -1.0998507 -0.72314042 4292016541
2.6564846 -1.1866341 -0.67170382 4292016541
2.864264 -1.2800474 -0.60982555 4292016541
3.1105051 -1.3913962 -0.53969896 4292016541
3.4152 -1.5291235 -0.45944747 4292016541
3.7838719 -1.6949859 -0.36274219 4292016541
4.208046 -1.8867587 -0.24168746 4292016541
2.458899 -1.1076531 -0.72262281 4292016541
2.6523263 -1.1958996 -0.67170382 4292016541
2.856199 -1.2884232 -0.60906237 4292016541
3.1200323 -1.4087485 -0.54220194 4292016541
3.4206948 -1.5459406 -0.46090987 4292016541
3.7797477 -1.7090045 -0.3629165 4292016541
4.2087131 -1.9047301 -0.24210617 4292016541
2.4567764 -1.1170292 -0.72314042 4292016541
2.6536674 -1.2071092 -0.67305356 4292016541
2.8570447 -1.300826 -0.6102072 4292016541
3.1189392 -1.4207251 -0.54282767 4292016541
3.4263868 -1.5622168 -0.46237233 4292016541
3.7737589 -1.7221879 -0.3629165 4292016541
4.2132745 -1.9236531 -0.24273418 4292016541
2.4688621 -1.1324189 -0.72779918 4292016541
2.6494377 -1.216365 -0.67305356 4292016541
2.8634193 -1.3152097 -0.61249691 4292016541
3.1103709 -1.4299531 -0.54220194 4292016541
3.4317329 -1.5791464 -0.46383476 4292016541
3.7843161 -1.7421916 -0.36448529 4292016541
4.2137904 -1.9416922 -0.24315289 4292016541
2.4701533 -1.1434644 -0.72935206 4292016541
2.6451757 -1.2256057 -0.67305356 4292016541
2.8677173 -1.3293253 -0.61440504 4292016541
3.1125283 -1.4441273 -0.5434534 4292016541
3.4225988 -1.5894437 -0.46334729 4292016541
3.789053 -1.7604277 -0.36553118 4292016541
4.2160416 -1.9605999 -0.24367623 4292016541
2.4696476 -1.1537154 -0.73038733 4292016541
2.6532383 -1.2406096 -0.67620283 4292016541
2.8595028 -1.3376635 -0.61364174 4292016541
3.1182022 -1.460009 -0.54533058 4292016541
3.4224224 -1.6039082 -0.46407849 4292016541
3.7901003 -1.7770262 -0.36622843 4292016541
4.2236366 -1.982093 -0.24451362 4292016541
2.4568682 -1.15821 -0.72779918 4292016541
2.6506541 -1.2506952 -0.67665279 4292016541
2.8601422 -1.3501513 -0.61478662 4292016541
3.1273751 -1.4776357 -0.54783356 4292016541
3.4221864 -1.6183909 -0.46480972 4292016541
3.7928793 -1.794506 -0.3671 4292016541
4.2311325 -2.0036623 -0.24535099 4292016541
2.454555 -1.167609 -0.72831684 4292016541
2.6550698 -1.2641287 -0.67890227 4292016541
2.8678191 -1.3660367 -0.61745793 4292016541
3.1186323 -1.4868432 -0.54720783 4292016541
3.4326403 -1.638021 -0.46700338 4292016541
3.7883899 -1.8085927 -0.36727428 4292016541
4.2313213 -2.0218637 -0.24576966 4292016541
2.4574308 -1.1795137 -0.73038733 4292016541
2.6453712 -1.2708573 -0.67755258 4292016541
2.8612638 -1.3751886 -0.61707634 4292016541
3.1187637 -1.5002891 -0.54814643 4292016541
3.437633 -1.65516 -0.46846578 4292016541
3.7892334 -1.8252642 -0.36797154 4292016541
4.2350326 -2.0418262 -0.2463977 4292016541
2.4637308 -1.1931367 -0.73349321 4292016541
2.6374118 -1.2783837 -0.67665279 4292016541
2.8688114 -1.3911642 -0.61974764 4292016541
3.1223929 -1.5154791 -0.54971075 4292016541
3.4264781 -1.6645476 -0.46773461 4292016541
3.8007591 -1.8471892 -0.36971465 4292016541
4.224287 -2.0548491 -0.24618836 4292016541
2.4630225 -1.2034254 -0.73452848 4292016541
2.6469383 -1.2944311 -0.68025202 4292016541
2.8604109 -1.3994442 -0.6189844 4292016541
3.1259544 -1.5307128 -0.55127513 4292016541
3.4206469 -1.6764979 -0.46773461 4292016541
3.7960773 -1.8613224 -0.36988899 4292016541
4.2386045 -2.0801413 -0.24744442 4292016541
2.4518754 -1.2085992 -0.73245794 4292016541
2.649394 -1.3071115 -0.6820516 4292016541
2.8625505 -1.412896 -0.62051088 4292016541
3.1294477 -1.5459898 -0.55283946 4292016541
3.4272301 -1.694587 -0.46944076 4292016541
3.7967002 -1.8780953 -0.37058622 4292016541
4.2456369 -2.1020138 -0.24828181 4292016541
2.4528313 -1.2197311 -0.73401088 4292016541
2.651794 -1.3198249 -0.68385124 4292016541
2.8646309 -1.4263799 -0.62203735 4292016541
3.1222641 -1.5560229 -0.55252659 4292016541
3.4283993 -1.7100841 -0.47041571 4292016541
3.7990346 -1.8957847 -0.37145776 4292016541
4.2436337 -2.119498 -0.2485958 4292016541
2.4537389 -1.2308842 -0.73556381 4292016541
2.6402044 -1.3255757 -0.6820516 4292016541
2.8701608 -1.441658 -0.62432706 4292016541
3.1256378 -1.5713485 -0.55409092 4292016541
3.4312756 -1.7265022 -0.47163439 4292016541
3.7977328 -1.9117218 -0.3719807 4292016541
4.2362094 -2.1342981 -0.2485958 4292016541
2.4597695 -1.2446752 -0.73866957 4292016541
2.6390383 -1.3365448 -0.68295145 4292016541
2.8703647 -1.4543298 -0.62547189 4292016541
3.1236577 -1.5840364 -0.55471671 4292016541
3.4163773 -1.733977 -0.47041571 4292016541
3.8105783 -1.9348896 -0.37389815 4292016541
4.2518802 -2.1608355 -0.24995655 4292016541
2.4588513 -1.2550102 -0.73970485 4292016541
2.6447692 -1.3510677 -0.68565083 4292016541
2.858278 -1.4607668 -0.62394547 4292016541
3.1339369 -1.6030264 -0.55753249 4292016541
3.4279737 -1.7549378 -0.47285309 4292016541
3.8162143 -1.9545368 -0.37511832 4292016541
4.2549758 -2.1811309 -0.25058457 4292016541
2.4475851 -1.2600487 -0.7376343 4292016541
2.6472044 -1.3633997 -0.68745047 4292016541
2.8549066 -1.4716345 -0.62432706 4292016541
3.1356266 -1.6170317 -0.55878401 4292016541
3.4362471 -1.7735794 -0.474803 4292016541
3.8111384 -1.9687604 -0.37529263 4292016541
4.2619143 -2.2025647 -0.25142196 4292016541
2.4468224 -1.2699382 -0.73866957 4292016541
2.6476169 -1.3753268 -0.6888001 4292016541
2.858721 -1.4856203 -0.62623513 4292016541
3.1264582 -1.6261442 -0.55815822 4292016541
3.4370785 -1.7892298 -0.47577798 4292016541
3.8081234 -1.9832283 -0.37564126 4292016541
4.2665973 -2.2238901 -0.25215468 4292016541
2.4475095 -1.2811592 -0.74022251 4292016541
2.6378627 -1.381387 -0.68745047 4292016541
2.8569958 -1.4974129 -0.62699842 4292016541
3.1280465 -1.6401724 -0.55940974 4292016541
3.4346418 -1.8024626 -0.47626543 4292016541
3.8117602 -2.0020676 -0.37668711 4292016541
4.2591991 -2.2380266 -0.25215468 4292016541
2.4517903 -1.2937763 -0.74281067 4292016541
2.6330247 -1.3905864 -0.68745047 4292016541
2.8624294 -1.5123816 -0.62928808 4292016541
3.1292868 -1.6547749 -0.5606612 4292016541
3.4353471 -1.8181551 -0.47724038 4292016541
3.8279908 -2.0268168 -0.37895316 4292016541
4.2654796 -2.2603617 -0.25299203 4292016541
2.45067 -1.3041418 -0.74384594 4292016541
2.6384745 -1.4052653 -0.69014984 4292016541
2.8605983 -1.5242105 -0.63005131 4292016541
3.1356931 -1.6721947 -0.56285131 4292016541
3.4307311 -1.8310704 -0.47748414 4292016541
3.8191352 -2.0392282 -0.37877885 4292016541
4.2804632 -2.2874749 -0.25435278 4292016541
2.4444005 -1.3117748 -0.74332833 4292016541
2.6472874 -1.4218434 -0.69374907 4292016541
2.8587191 -1.5360452 -0.63081461 4292016541
3.133316 -1.6850013 -0.56347704 4292016541
3.4383025 -1.8505611 -0.47943404 4292016541
3.8063731 -2.0503778 -0.3782559 4292016541
4.2830014 -2.3080873 -0.2549808 4292016541
2.4378774 -1.3198056 -0.74281067 4292016541
2.6474488 -1.4338597 -0.69509876 4292016541
2.8599739 -1.5502549 -0.63234103 4292016541
3.1201739 -1.6927062 -0.56222552 4292016541
3.4527583 -1.8739145 -0.4823589 4292016541
3.8167005 -2.0731618 -0.37999901 4292016541
4.2867961 -2.3304474 -0.25571349 4292016541
2.4451251 -1.3347868 -0.74643415 4292016541
2.6404655 -1.4426191 -0.69464886 4292016541
2.8579907 -1.5621119 -0.63310426 4292016541
3.1263776 -1.7102237 -0.56441563 4292016541
3.4476082 -1.8875102 -0.48260266 4292016541
3.8269153 -2.0960431 -0.38174215 4292016541
4.278635 -2.345397 -0.25571349 4292016541
2.4506054 -1.3489031 -0.74953997 4292016541
2.6302934 -1.4490064 -0.69329917 4292016541
2.8593981 -1.575869 -0.63463074 4292016541
3.1324966 -1.7278047 -0.56660569 4292016541
3.4409986 -1.8995332 -0.48260266 4292016541
3.8352721 -2.1180573 -0.38331094 4292016541
4.2791624 -2.3651488 -0.25623688 4292016541
2.4509494 -1.3602613 -0.75109291 4292016541
2.6439583 -1.4685879 -0.69824809 4292016541
2.8470154 -1.5820261 -0.63310426 4292016541
3.1350782 -1.743529 -0.56817007 4292016541
3.4412849 -1.9153943 -0.48357758 4292016541
3.8348181 -2.1353092 -0.3840082 4292016541
4.29705 -2.394655 -0.25780693 4292016541
2.4394429 -1.3650352 -0.74902231 4292016541
2.6456172 -1.4816169 -0.70004767 4292016541
2.8517523 -1.597712 -0.63539398 4292016541
3.135865 -1.7583263 -0.56942153 4292016541
3.4415023 -1.931281 -0.48455253 4292016541
3.8342905 -2.1525834 -0.38470542 4292016541
4.2973714 -2.4145319 -0.25833032 4292016541
2.4363456 -1.3744913 -0.74953997 4292016541
2.6455197 -1.493717 -0.70139736 4292016541
2.8529956 -1.6115189 -0.63692045 4292016541
3.1262691 -1.7673174 -0.5687958 4292016541
3.4520173 -1.9530575 -0.48698995 4292016541
3.833689 -2.1698804 -0.38540271 4292016541
4.3062949 -2.4393618 -0.25937703 4292016541
2.4432874 -1.3896731 -0.75316346 4292016541
2.6352093 -1.5000504 -0.70004767 4292016541
2.861001 -1.6292402 -0.6399734 4292016541
3.1149321 -1.7752851 -0.56785715 4292016541
3.4555252 -1.9709965 -0.4884524 4292016541
3.8382051 -2.1901612 -0.38662288 4292016541
4.2960196 -2.4533885 -0.25927237 4292016541
2.4451256 -1.4020373 -0.755234 4292016541
2.6350274 -1.5121497 -0.70139736 4292016541
2.8587019 -1.6411718 -0.64073664 4292016541
3.1258445 -1.7959884 -0.57098585 4292016541
3.4455276 -1.9804662 -0.4879649 4292016541
3.8478065 -2.2134805 -0.38836598 4292016541
4.2978144 -2.4743481 -0.25990039 4292016541
2.4471533 -1.4140037 -0.75730455 4292016541
2.6401205 -1.5267327 -0.70409679 4292016541
2.8532441 -1.6506426 -0.64073664 4292016541
3.1301286 -1.812283 -0.5728631 4292016541
3.4440944 -1.9948659 -0.48869613 4292016541
3.8456166 -2.2292259 -0.38888893 4292016541
4.3137722 -2.5026183 -0.2613658 4292016541
2.4307644 -1.4153068 -0.75368112 4292016541
2.6434617 -1.5403851 -0.70634627 4292016541
2.8542483 -1.6645485 -0.64226311 4292016541
3.1241016 -1.8226529 -0.5728631 4292016541
3.447396 -2.0128813 -0.49015856 4292016541
3.8395317 -2.2436411 -0.38906324 4292016541
2.4305587 -1.427141 -0.755234 4292016541
2.6512394 -1.5579618 -0.7099455 4292016541
2.8548973 -1.6789795 -0.64378959 4292016541
3.1208053 -1.8360945 -0.57348883 4292016541
3.4553902 -2.0345678 -0.49235216 4292016541
3.843298 -2.2647791 -0.39028341 4292016541
2.4386101 -1.4439139 -0.75937515 4292016541
2.6354523 -1.5617079 -0.70724607 4292016541
2.8588564 -1.6954409 -0.6460793 4292016541
3.1174526 -1.8495361 -0.57411456 4292016541
3.4564445 -2.0522866 -0.49357089 4292016541
3.8486743 -2.2869928 -0.39167792 4292016541
2.4399362 -1.4568037 -0.76144564 4292016541
2.6347291 -1.5743556 -0.70859581 4292016541
2.8593626 -1.7099379 -0.64760572 4292016541
3.1242142 -1.8690629 -0.57661748 4292016541
3.4403832 -2.0598426 -0.49235216 4292016541
3.8488111 -2.3062038 -0.39254946 4292016541
2.4384027 -1.4668784 -0.76248091 4292016541
2.6378415 -1.5881096 -0.71084529 4292016541
2.8506131 -1.7168866 -0.64684254 4292016541
3.1281497 -1.8855315 -0.57849473 4292016541
3.4491949 -2.0798664 -0.49454582 4292016541
3.8603108 -2.3296072 -0.39446688 4292016541
2.4269164 -1.4709511 -0.76041043 4292016541
2.627562 -1.5938164 -0.7094956 4292016541
2.8516178 -1.7304041 -0.64836901 4292016541
3.1320105 -1.9020467 -0.58037198 4292016541
3.449065 -2.0954156 -0.49552077 4292016541
3.8508623 -2.3413608 -0.39429256 4292016541
2.4286203 -1.4830182 -0.76248091 4292016541
2.6488674 -1.6187799 -0.71669406 4292016541
2.8556092 -1.7464935 -0.65065867 4292016541
3.1273708 -1.9134532 -0.58068478 4292016541
3.4552732 -2.1157353 -0.49747071 4292016541
3.8409672 -2.3537476 -0.39411828 4292016541
2.4264584 -1.493935 -0.76351619 4292016541
2.6379392 -1.6254108 -0.71534431 4292016541
2.8592153 -1.763131 -0.65294844 4292016541
3.1287427 -1.9300884 -0.58224916 4292016541
3.454252 -2.1325564 -0.49844566 4292016541
3.861129 -2.385613 -0.39708155 4292016541
2.4373801 -1.513007 -0.76869255 4292016541
2.6170661 -1.6258132 -0.71129525 4292016541
2.8597133 -1.7772459 -0.65447485 4292016541
3.1333892 -1.948846 -0.58443922 4292016541
3.4535289 -2.1487961 -0.49942058 4292016541
3.8646171 -2.4064479 -0.39830172 4292016541
2.4389012 -1.5251787 -0.77076316 4292016541
2.6380911 -1.6510242 -0.7184937 4292016541
2.8538039 -1.7867193 -0.65447485 4292016541
3.1302574 -1.9613236 -0.58506501 4292016541
3.4447021 -2.1591823 -0.49917686 4292016541
3.8566158 -2.4192502 -0.39830172 4292016541
2.4207537 -1.5250201 -0.76662207 4292016541
2.6309531 -1.6587238 -0.71804374 4292016541
2.8541913 -1.8008605 -0.65600139 4292016541
3.1354294 -1.9790736 -0.58725506 4292016541
3.4556053 -2.1828549 -0.501858 4292016541
3.8548839 -2.4369562 -0.39899898 4292016541
2.4249325 -1.5400966 -0.76972789 4292016541
2.6396575 -1.6777635 -0.72209287 4292016541
2.8508847 -1.813417 -0.65676457 4292016541
3.1214883 -1.9863102 -0.5860036 4292016541
3.4609768 -2.204036 -0.5038079 4292016541
3.8526473 -2.4553523 -0.39969626 4292016541
2.4257793 -1.553141 -0.77179843 4292016541
2.6252866 -1.6821704 -0.71984333 4292016541
2.85776 -1.8318332 -0.65981752 4292016541
3.1241632 -2.0041375 -0.58788079 4292016541
3.4666274 -2.2246809 -0.50575781 4292016541
3.869199 -2.484935 -0.40231091 4292016541
2.4336033 -1.5695528 -0.77593952 4292016541
2.6229684 -1.6929808 -0.72074318 4292016541
2.8582671 -1.8455597 -0.66134399 4292016541
3.1307731 -2.0230632 -0.59038377 4292016541
3.449228 -2.2296984 -0.50429535 4292016541
3.8709745 -2.5042453 -0.40335676 4292016541
2.4283853 -1.5776144 -0.77593952 4292016541
2.6304102 -1.7101672 -0.72434241 4292016541
2.8455479 -1.8507463 -0.65981752 4292016541
3.1273582 -2.0355895 -0.5910095 4292016541
3.4563942 -2.2514763 -0.50648904 4292016541
3.8743339 -2.5246828 -0.40457696 4292016541
2.419631 -1.5839653 -0.77490425 4292016541
2.630945 -1.7236103 -0.72614199 4292016541
2.8489227 -1.8671244 -0.66210729 4292016541
3.1301444 -2.0529938 -0.59288669 4292016541
3.455152 -2.2678843 -0.50746399 4292016541
3.8671627 -2.5392849 -0.40475124 4292016541
2.4156997 -1.5934654 -0.77542186 4292016541
2.6314175 -1.7370776 -0.72794157 4292016541
2.8554938 -1.8857127 -0.66516018 4292016541
3.127903 -2.0671749 -0.59382528 4292016541
3.8649223 -2.5571661 -0.40544853 4292016541
2.424603 -1.6115125 -0.78008062 4292016541
2.6237154 -1.7451733 -0.72749174 4292016541
2.8488939 -1.8956689 -0.66516018 4292016541
3.1288893 -2.0835552 -0.59538966 4292016541
3.8742073 -2.5827985 -0.40736595 4292016541
2.4253833 -1.6242656 -0.78215116 4292016541
2.6176078 -1.7543211 -0.72749174 4292016541
2.8585665 -1.9165349 -0.66897637 4292016541
3.1314392 -2.1010678 -0.59726685 4292016541
3.8845601 -2.6103158 -0.40945768 4292016541
2.4242175 -1.6363869 -0.7837041 4292016541
2.6195431 -1.7689005 -0.72974122 4292016541
2.8450162 -1.9226019 -0.66744989 4292016541
3.1335354 -2.1191709 -0.59914404 4292016541
3.8869731 -2.6316786 -0.41067785 4292016541
2.4136984 -1.6415796 -0.78215116 4292016541
2.6227081 -1.7850684 -0.73244059 4292016541
2.8512702 -1.9413608 -0.67050284 4292016541
3.1359136 -2.13677 -0.60102129 4292016541
3.8794091 -2.6463532 -0.41085216 4292016541
2.4095471 -1.6510869 -0.78266883 4292016541
2.6180685 -1.7953147 -0.73289055 4292016541
2.8509517 -1.9557441 -0.67202932 4292016541
3.1284359 -2.1477032 -0.60102129 4292016541
3.8865674 -2.6711638 -0.41259527 4292016541
2.4117181 -1.6649756 -0.78525704 4292016541
2.610182 -1.8033348 -0.73244059 4292016541
2.8441076 -1.9656835 -0.67202932 4292016541
3.1209197 -2.1586106 -0.60102129 4292016541
3.4848089 -2.4120965 -0.52038211 4292016541
3.8968763 -2.6983252 -0.41468704 4292016541
2.4074774 -1.674487 -0.78577471 4292016541
2.6086698 -1.8157749 -0.73379034 4292016541
2.8565629 -1.989062 -0.67660874 4292016541
3.12309 -2.1762674 -0.60289848 4292016541
3.4926507 -2.4356008 -0.52281958 4292016541
3.9005058 -2.7210307 -0.41608149 4292016541
2.4095283 -1.6884238 -0.78836286 4292016541
2.6086979 -1.8293453 -0.73558998 4292016541
2.8415661 -1.9933836 -0.67470068 4292016541
3.1381087 -2.2030461 -0.60727865 4292016541
3.4776301 -2.443213 -0.52184457 4292016541
3.9007649 -2.7415032 -0.41712737 4292016541
2.4004633 -1.6945958 -0.78732753 4292016541
2.6169434 -1.8481033 -0.73963904 4292016541
2.842607 -2.008956 -0.67660874 4292016541
3.4581656 -2.4467061 -0.52013838 4292016541
3.5887232 -2.5409575 -0.38470542 4292016541
2.39798 -1.7047855 -0.78836286 4292016541
2.6120644 -1.8583568 -0.740089 4292016541
2.8455262 -2.0252016 -0.67889845 4292016541
3.1648741 -2.2541509 -0.61541325 4292016541
3.4366722 -2.4495447 -0.51818854 4292016541
3.4634762 -2.4695613 -0.37215498 4292016541
2.4045789 -1.7221445 -0.79250389 4292016541
2.6058874 -1.8670084 -0.740089 4292016541
2.8432264 -2.038554 -0.68004328 4292016541
3.1782491 -2.2796006 -0.61948055 4292016541
3.3914392 -2.4343042 -0.51258254 4292016541
3.4273255 -2.4618764 -0.36919171 4292016541
2.407953 -1.7373095 -0.79560977 4292016541
2.6053469 -1.8811097 -0.74188858 4292016541
2.8440506 -2.054214 -0.6819514 4292016541
3.1906848 -2.3062775 -0.62354785 4292016541
3.3406754 -2.4164691 -0.50624532 4292016541
3.3993416 -2.4598091 -0.3671 4292016541
3.4197302 -2.4763815 -0.22127645 4292016541
2.4081249 -1.7502472 -0.79768038 4292016541
2.6097965 -1.8982166 -0.74503791 4292016541
2.8368628 -2.0641291 -0.6819514 4292016541
3.166646 -2.3057733 -0.62041914 4292016541
3.3258026 -2.423439 -0.50527036 4292016541
3.363364 -2.4517081 -0.36413667 4292016541
3.3884757 -2.4718251 -0.21981104 4292016541
2.4020007 -1.7586426 -0.79768038 4292016541
2.6078701 -1.9107702 -0.7463876 4292016541
2.845475 -2.0856247 -0.68576753 4292016541
3.1665421 -2.3226547 -0.62198347 4292016541
3.2869179 -2.4127152 -0.50063932 4292016541
3.3226669 -2.4398487 -0.36065045 4292016541
3.3653417 -2.4729934 -0.21886899 4292016541
3.3798594 -2.4854791 -0.073230296 4292016541
2.3989568 -1.7693099 -0.79871565 4292016541
2.6184318 -1.9325914 -0.75133651 4292016541
2.8429158 -2.0990431 -0.68691242 4292016541
3.1488831 -2.3266506 -0.62010628 4292016541
3.2657068 -2.4147322 -0.49868938 4292016541
3.2933064 -2.436029 -0.3583844 4292016541
3.3277936 -2.4633362 -0.21698491 4292016541
3.3759832 -2.5008326 -0.073335014 4292016541
2.392766 -1.7776731 -0.79871565 4292016541
2.6054144 -1.9370691 -0.74953693 4292016541
2.8418727 -2.1136408 -0.68843889 4292016541
3.1407423 -2.3376279 -0.62010628 4292016541
3.231786 -2.4071448 -0.4947896 4292016541
3.2608185 -2.4296539 -0.35576975 4292016541
3.2775445 -2.4438965 -0.21426344 4292016541
3.3452315 -2.4952755 -0.072846346 4292016541
3.3573182 -2.5125084 0.07319539 4292016541
2.5958562 -1.9433622 -0.74863708 4292016541
2.8344772 -2.123548 -0.68843889 4292016541
3.1456189 -2.3575075 -0.62260926 4292016541
3.1967883 -2.3976002 -0.490646 4292016541
3.2331953 -2.4266694 -0.35367799 4292016541
3.2486591 -2.439162 -0.21290269 4292016541
3.304527 -2.482913 -0.072148249 4292016541
3.3309622 -2.5109718 0.072811447 4292016541
2.6030602 -1.9629717 -0.75268626 4292016541
2.8838427 -2.1754997 -0.70217711 4292016541
3.1310639 -2.3637125 -0.62135774 4292016541
3.1614733 -2.3884025 -0.48650244 4292016541
3.2092354 -2.4253652 -0.35193488 4292016541
3.2146373 -2.4312112 -0.21122794 4292016541
3.2639494 -2.4702969 -0.071450152 4292016541
3.2966952 -2.5032349 0.072252966 4292016541
2.6086073 -1.9814758 -0.75628549 4292016541
2.8949895 -2.1998065 -0.70675659 4292016541
3.1102147 -2.3650622 -0.61885482 4292016541
3.1262619 -2.3789876 -0.4823589 4292016541
3.1737995 -2.4160368 -0.34897158 4292016541
3.1981874 -2.4363656 -0.21070457 4292016541
3.2298622 -2.4622779 -0.070891678 4292016541
3.2577579 -2.4916451 0.071589775 4292016541
2.6094129 -1.9964905 -0.75853497 4292016541
3.2925704 -2.5200932 0.21729892 4292016541
2.9106779 -2.2277973 -0.71248084 4292016541
3.0737123 -2.3542836 -0.61322314 4292016541
3.1116369 -2.3850551 -0.48138395 4292016541
3.1412098 -2.4094639 -0.34635693 4292016541
3.1706491 -2.4329247 -0.20944853 4292016541
3.208559 -2.463794 -0.070612431 4292016541
3.2221107 -2.4822552 0.070996389 4292016541
2.6008844 -2.0043972 -0.75808507 4292016541
3.2695174 -2.5205956 0.21635687 4292016541
2.9102666 -2.2444453 -0.71438891 4292016541
3.0369146 -2.3438094 -0.60759157 4292016541
3.0734377 -2.372853 -0.47675291 4292016541
3.1091306 -2.4021423 -0.34374225 4292016541
3.1332691 -2.4225392 -0.20756441 4292016541
3.1730494 -2.4541805 -0.070019051 4292016541
3.1908758 -2.4768815 0.07050772 4292016541
2.5965989 -2.0163069 -0.75898486 4292016541
3.2255566 -2.5056069 0.21405408 4292016541
2.8869097 -2.2425466 -0.71057272 4292016541
3.0037613 -2.3349984 -0.60258561 4292016541
3.0396509 -2.3645999 -0.47285309 4292016541
3.0850027 -2.4007444 -0.34199914 4292016541
3.0948539 -2.4101458 -0.20557566 4292016541
3.1482599 -2.4535019 -0.069670007 4292016541
3.163306 -2.4732244 0.070088863 4292016541
2.5987549 -2.0325618 -0.7616843 4292016541
3.1947687 -2.4996207 0.21258868 4292016541
2.8867953 -2.2586591 -0.71248084 4292016541
3.2383199 -2.5346069 0.35977891 4292016541
2.9847047 -2.3369443 -0.60039556 4292016541
3.0110652 -2.3592799 -0.46968448 4292016541
3.0515141 -2.3918328 -0.33921015 4292016541
3.0754216 -2.4123054 -0.20484295 4292016541
3.1082168 -2.4397821 -0.06897191 4292016541
3.1358013 -2.4694049 0.069670007 4292016541
2.6023595 -2.0500622 -0.76483357 4292016541
3.1644976 -2.492898 0.21112327 4292016541
2.8819776 -2.2711523 -0.71324408 4292016541
3.2044182 -2.5261595 0.35698992 4292016541
2.9625692 -2.3363397 -0.59757972 4292016541
2.9903452 -2.3599379 -0.46773461 4292016541
3.0181255 -2.3827167 -0.33642116 4292016541
3.0513105 -2.4106445 -0.20379624 4292016541
3.0655937 -2.4227979 -0.068204008 4292016541
3.093123 -2.4524579 0.068902098 4292016541
2.5894399 -2.0538368 -0.76303399 4292016541
3.1370013 -2.4890323 0.20986721 4292016541
2.8632681 -2.2726545 -0.71057272 4292016541
3.1721752 -2.5187452 0.35437521 4292016541
2.930053 -2.3264973 -0.59257382 4292016541
3.1943161 -2.5372348 0.50088304 4292016541
2.9654067 -2.356257 -0.46505347 4292016541
2.986398 -2.3746371 -0.33380648 4292016541
3.0214167 -2.4033434 -0.20233083 4292016541
3.0430369 -2.4222755 -0.067889862 4292016541
3.0720425 -2.4532573 0.068622865 4292016541
3.1033299 -2.4800169 0.20819245 4292016541
2.8526487 -2.2796857 -0.70980954 4292016541
3.1451309 -2.514322 0.35228351 4292016541
2.9034019 -2.3219063 -0.58881938 4292016541
3.154438 -2.5235679 0.49600828 4292016541
2.9370153 -2.3504689 -0.46188486 4292016541
2.960984 -2.3713472 -0.33188906 4292016541
2.984952 -2.3913977 -0.20044672 4292016541
3.0189614 -2.4203744 -0.06754081 4292016541
3.0447619 -2.4489262 0.068204008 4292016541
2.6236238 -2.1109562 -0.77743083 4292016541
3.0728719 -2.4733024 0.20672706 4292016541
2.8305111 -2.2790446 -0.70637494 4292016541
3.1219292 -2.5145843 0.35071471 4292016541
2.8733373 -2.3151808 -0.58443922 4292016541
3.1270609 -2.5196176 0.49308339 4292016541
2.9009731 -2.3382833 -0.45749757 4292016541
2.9340792 -2.366658 -0.32979733 4292016541
2.9528551 -2.3835046 -0.19887665 4292016541
2.9933803 -2.417079 -0.067156859 4292016541
3.0186756 -2.4462206 0.06782005 4292016541
2.6204109 -2.1242394 -0.77878052 4292016541
3.0393956 -2.4638898 0.2050523 4292016541
2.8103395 -2.2790186 -0.70332199 4292016541
3.0883763 -2.5053833 0.34792572 4292016541
2.8498995 -2.3127487 -0.58131051 4292016541
3.1023934 -2.5185506 0.490646 4292016541
2.8738918 -2.3338833 -0.45457271 4292016541
3.1435089 -2.552839 0.64138144 4292016541
2.9103363 -2.3643227 -0.32805422 4292016541
2.9336689 -2.3849785 -0.19814396 4292016541
2.9632049 -2.4098492 -0.06666819 4292016541
2.9888551 -2.4385195 0.067331389 4292016541
2.6178813 -2.1366138 -0.78013027 4292016541
3.0122111 -2.4593267 0.20379624 4292016541
2.78108 -2.2714281 -0.69797933 4292016541
3.0472114 -2.4896762 0.34426519 4292016541
2.8330364 -2.314688 -0.57943332 4292016541
3.0709696 -2.5099812 0.48698995 4292016541
2.853842 -2.3333485 -0.45262277 4292016541
3.1177588 -2.5500391 0.63793981 4292016541
2.877393 -2.3542805 -0.32526523 4292016541
2.9041059 -2.3769834 -0.19667853 4292016541
2.9362109 -2.4049728 -0.066249333 4292016541
2.9556046 -2.4286253 0.066772908 4292016541
2.6194398 -2.1531639 -0.7828297 4292016541
2.9897239 -2.4584095 0.20285419 4292016541
2.7629173 -2.2719095 -0.69530803 4292016541
3.0158579 -2.4807816 0.34165049 4292016541
2.7913816 -2.2969494 -0.57255018 4292016541
3.0499282 -2.5105927 0.48504004 4292016541
2.8257587 -2.3268914 -0.44945419 4292016541
3.0783448 -2.5357873 0.63168246 4292016541
2.8553195 -2.3529067 -0.32369643 4292016541
3.1120429 -2.5644579 0.7838434 4292016541
2.8819211 -2.3756726 -0.1957365 4292016541
2.9092872 -2.3999374 -0.065830477 4292016541
2.919379 -2.4159787 0.066144623 4292016541
2.6149101 -2.1647794 -0.78372949 4292016541
2.9657419 -2.4560914 0.20180747 4292016541
2.7334058 -2.2644861 -0.68996537 4292016541
2.9914045 -2.479105 0.33990738 4292016541
2.7616539 -2.2895143 -0.56817007 4292016541
3.0121098 -2.4971516 0.480409 4292016541
2.8008111 -2.3228018 -0.44677305 4292016541
3.0542712 -2.5339043 0.62855375 4292016541
2.8271577 -2.346318 -0.32143039 4292016541
3.0739229 -2.5520198 0.77659267 4292016541
2.8455379 -2.36325 -0.19385241 4292016541
2.8916636 -2.402411 -0.065621048 4292016541
2.9074328 -2.4241014 0.066074811 4292016541
2.594986 -2.1643636 -0.78013027 4292016541
2.9249406 -2.4395642 0.19960935 4292016541
2.7134249 -2.2639515 -0.68691242 4292016541
2.9674366 -2.4767652 0.33816427 4292016541
2.7445474 -2.2915442 -0.56629282 4292016541
2.9755132 -2.4852691 0.47602168 4292016541
2.7694287 -2.3139596 -0.44311696 4292016541
3.0287335 -2.5306182 0.62511224 4292016541
2.8067205 -2.3459504 -0.32003587 4292016541
3.0484283 -2.5488815 0.7723949 4292016541
2.8158231 -2.3552287 -0.19238698 4292016541
2.861789 -2.3945243 -0.06513238 4292016541
2.8764038 -2.4144447 0.065551244 4292016541
2.6101801 -2.1917543 -0.78687876 4292016541
2.8980556 -2.4343443 0.19835329 4292016541
2.6814566 -2.2532012 -0.68080652 4292016541
2.9404712 -2.4717243 0.33607253 4292016541
2.7293725 -2.2942774 -0.5647285 4292016541
2.9551005 -2.4849017 0.47407177 4292016541
2.7450299 -2.3090742 -0.44043583 4292016541
2.9866292 -2.5131938 0.61822909 4292016541
2.7786992 -2.3390532 -0.31776983 4292016541
3.023437 -2.5450687 0.768197 4292016541
2.7957757 -2.3542614 -0.19154961 4292016541
3.0449154 -2.5649655 0.91914994 4292016541
2.8289466 -2.3838823 -0.064573906 4292016541
2.8511596 -2.4102697 0.065167286 4292016541
2.5995378 -2.1983354 -0.78597897 4292016541
2.8716667 -2.4284649 0.19709724 4292016541
2.6589816 -2.2494011 -0.67699033 4292016541
2.9048829 -2.4582944 0.33293492 4292016541
2.7032554 -2.2884746 -0.56097406 4292016541
2.9282303 -2.4798074 0.47114691 4292016541
2.7248359 -2.3083773 -0.43848595 4292016541
2.9556704 -2.5039315 0.61353606 4292016541
2.7435679 -2.3250687 -0.31463224 4292016541
2.9965649 -2.5403728 0.76361769 4292016541
2.7784014 -2.3562553 -0.19092159 4292016541
3.0240557 -2.5654931 0.91555077 4292016541
2.7935781 -2.3699646 -0.063945621 4292016541
2.8218312 -2.4015665 0.064678617 4292016541
2.6026199 -2.2157867 -0.7891283 4292016541
2.8540487 -2.4307039 0.1964692 4292016541
2.6361692 -2.2459371 -0.67317414 4292016541
2.8780875 -2.4529114 0.33084321 4292016541
2.6580658 -2.2653933 -0.55315232 4292016541
2.9018636 -2.4740498 0.46822205 4292016541
2.7065935 -2.3083832 -0.43677977 4292016541
2.9273763 -2.4975655 0.60946876 4292016541
2.7172494 -2.3191102 -0.3125405 4292016541
2.9687109 -2.5337267 0.75865656 4292016541
2.7493069 -2.3473001 -0.18945618 4292016541
3.0007131 -2.5628512 0.91105175 4292016541
2.7670436 -2.3641138 -0.063526757 4292016541
3.0120032 -2.5743127 1.0616758 4292016541
2.7917571 -2.3936706 0.064189956 4292016541
2.5767312 -2.2100863 -0.78372949 4292016541
2.8238997 -2.4229405 0.19500379 4292016541
2.6193738 -2.2474549 -0.67088449 4292016541
2.8604367 -2.4551566 0.32979733 4292016541
2.634758 -2.2622516 -0.55002367 4292016541
2.862659 -2.4588001 0.46334729 4292016541
2.6785412 -2.3014698 -0.43361115 4292016541
2.9107122 -2.5018404 0.60790437 4292016541
2.7015829 -2.3220875 -0.31166893 4292016541
2.9355862 -2.524111 0.75255072 4292016541
2.7149439 -2.3352203 -0.18767676 4292016541
2.9691417 -2.5547667 0.90430319 4292016541
2.7553294 -2.3716307 -0.063456953 4292016541
3.0040119 -2.5865955 1.0621934 4292016541
2.768249 -2.3903317 0.063840903 4292016541
2.5645766 -2.2152457 -0.78237975 4292016541
2.7957788 -2.415807 0.19364306 4292016541
2.5966575 -2.2437479 -0.66706824 4292016541
2.8367758 -2.4520972 0.32805422 4292016541
2.6148911 -2.2610986 -0.5475207 4292016541
2.8420477 -2.4583886 0.46139738 4292016541
2.6509767 -2.2939193 -0.43044254 4292016541
2.8840389 -2.4964712 0.60415 4292016541
2.6738775 -2.3145518 -0.30940288 4292016541
2.9000428 -2.5112102 0.74568158 4292016541
2.6931891 -2.3329136 -0.18673471 4292016541
2.9292786 -2.5383155 0.89485526 4292016541
2.7228575 -2.3602769 -0.062898472 4292016541
2.9774501 -2.5818784 1.0559818 4292016541
2.7447991 -2.3868585 0.063491859 4292016541
2.5494769 -2.2177894 -0.78013027 4292016541
2.7662356 -2.4071958 0.19217765 4292016541
2.5680754 -2.2347558 -0.66172564 4292016541
2.8086631 -2.4449782 0.32578817 4292016541
2.5980442 -2.262429 -0.54564345 4292016541
2.8184814 -2.4552548 0.45896 4292016541
2.6249943 -2.2875092 -0.42751768 4292016541
2.8499935 -2.4844563 0.59883118 4292016541
2.6522653 -2.3120885 -0.30783406 4292016541
2.8882999 -2.5187373 0.74491841 4292016541
2.671484 -2.3304839 -0.18579267 4292016541
2.8998446 -2.530587 0.88855666 4292016541
2.6935117 -2.3513565 -0.062409807 4292016541
2.946593 -2.5731947 1.0482172 4292016541
2.7214069 -2.3832507 0.063142806 4292016541
2.5255959 -2.2125494 -0.77518129 4292016541
2.7397912 -2.4010408 0.19092159 4292016541
2.5425408 -2.228179 -0.65714622 4292016541
2.7701478 -2.4284992 0.32230192 4292016541
2.5737941 -2.2571568 -0.54220194 4292016541
2.7979558 -2.4546051 0.45701009 4292016541
2.6005814 -2.2822552 -0.42483655 4292016541
2.8249745 -2.4800541 0.59538966 4292016541
2.6262112 -2.3055592 -0.30574232 4292016541
2.8558881 -2.508076 0.73881245 4292016541
2.65433 -2.3318856 -0.18516463 4292016541
2.8807468 -2.5316889 0.88540733 4292016541
2.6702693 -2.3475411 -0.062060758 4292016541
2.9085798 -2.5579491 1.0378644 4292016541
2.6920745 -2.374218 0.062654138 4292016541
2.5061667 -2.2110384 -0.77158207 4292016541
2.7254031 -2.4053035 0.1905029 4292016541
2.5273879 -2.230545 -0.65523815 4292016541
2.7437308 -2.4223304 0.32021019 4292016541
2.5525742 -2.2543588 -0.53938609 4292016541
2.768543 -2.4459565 0.45359772 4292016541
2.579212 -2.2794876 -0.42264292 4292016541
2.8000212 -2.4755073 0.59194809 4292016541
2.5953565 -2.2953699 -0.30312768 4292016541
2.8221154 -2.4959188 0.73232496 4292016541
2.634207 -2.3305497 -0.18432724 4292016541
2.8572989 -2.5288138 0.88090831 4292016541
2.6500809 -2.3462431 -0.061781518 4292016541
2.8779399 -2.5488737 1.0300999 4292016541
2.656858 -2.3596983 0.062025853 4292016541
2.4838653 -2.2068298 -0.76708305 4292016541
2.6990767 -2.3988805 0.18924683 4292016541
2.5030563 -2.2254441 -0.65104032 4292016541
2.728879 -2.427074 0.31951293 4292016541
2.5251088 -2.2466297 -0.53531879 4292016541
2.7318099 -2.4305351 0.44896671 4292016541
2.559377 -2.2779186 -0.42069301 4292016541
2.7766094 -2.4721308 0.58881938 4292016541
2.5813773 -2.2991152 -0.30243042 4292016541
2.796824 -2.4918795 0.72812718 4292016541
2.5943365 -2.3122818 -0.18212914 4292016541
2.8378296 -2.5301912 0.87775904 4292016541
2.6269491 -2.3421714 -0.061432473 4292016541
2.858933 -2.5499029 1.0264764 4292016541
2.6362693 -2.3587532 0.061746612 4292016541
2.4583354 -2.2003229 -0.7616843 4292016541
2.6638985 -2.3843112 0.18736275 4292016541
2.4821088 -2.2223814 -0.64760572 4292016541
2.7025809 -2.4206333 0.3174212 4292016541
2.5054815 -2.2448845 -0.53281587 4292016541
2.7051446 -2.4246318 0.44604182 4292016541
2.5317965 -2.2700562 -0.4175244 4292016541
2.7488432 -2.4646645 0.58475208 4292016541
2.5674033 -2.3027906 -0.30173317 4292016541
2.7705736 -2.4858932 0.72354776 4292016541
2.5713859 -2.3079827 -0.18108243 4292016541
2.7985299 -2.5127411 0.86831105 4292016541
2.6038778 -2.3379672 -0.061083425 4292016541
2.8356426 -2.546958 1.0213 4292016541
2.6135747 -2.354099 0.061397567 4292016541
2.4423389 -2.2006361 -0.75898486 4292016541
2.6407242 -2.3802233 0.18631603 4292016541
2.4612134 -2.2191999 -0.64417118 4292016541
2.6793203 -2.4167078 0.31567809 4292016541
2.4862888 -2.2425961 -0.5303129 4292016541
2.683825 -2.4216206 0.44384819 4292016541
2.5109928 -2.266469 -0.41533077 4292016541
2.7152989 -2.4517393 0.57943332 4292016541
2.5416069 -2.2957125 -0.29964143 4292016541
2.7550299 -2.4884872 0.72163963 4292016541
2.5577905 -2.311141 -0.18066373 4292016541
2.7684965 -2.5024066 0.86156255 4292016541
2.5690024 -2.322901 -0.060455136 4292016541
2.812408 -2.5438814 1.0161237 4292016541
2.5979357 -2.3564904 0.061223041 4292016541
2.4202108 -2.1960528 -0.75448585 4292016541
2.6205683 -2.3786879 0.18547864 4292016541
2.4291279 -2.2049177 -0.63768369 4292016541
2.6447411 -2.4014709 0.3125405 4292016541
2.4725966 -2.2459488 -0.52906144 4292016541
2.6694791 -2.4256344 0.44287321 4292016541
2.4957213 -2.2685442 -0.41411206 4292016541
2.6877246 -2.4439266 0.57536602 4292016541
2.5133426 -2.2853625 -0.29720107 4292016541
2.7172806 -2.4716685 0.71400726 4292016541
2.5349352 -2.3066134 -0.17961702 4292016541
2.7510982 -2.504184 0.85886312 4292016541
2.552007 -2.3237765 -0.060245708 4292016541
2.76495 -2.5185585 1.0021474 4292016541
2.5690238 -2.3466635 0.060734376 4292016541
2.4053373 -2.1979151 -0.75223631 4292016541
2.6019301 -2.3783882 0.18474595 4292016541
2.4170694 -2.2094097 -0.63653886 4292016541
2.6186979 -2.3945544 0.31044877 4292016541
2.4355903 -2.2279005 -0.52280408 4292016541
2.6404927 -2.4161768 0.4394609 4292016541
2.4804661 -2.27054 -0.41289338 4292016541
2.6704359 -2.4452891 0.57348883 4292016541
2.4862475 -2.2766299 -0.29493502 4292016541
2.6869209 -2.461247 0.70828301 4292016541
2.5150878 -2.3046532 -0.17877965 4292016541
2.7236652 -2.4966538 0.85301441 4292016541
2.5320888 -2.3218584 -0.059966467 4292016541
2.7504473 -2.5229712 1.0000768 4292016541
2.5431557 -2.339371 0.060315516 4292016541
2.3718383 -2.1825457 -0.74413806 4292016541
2.5759788 -2.3712239 0.18348989 4292016541
2.4006758 -2.2098551 -0.63424915 4292016541
2.598598 -2.3928835 0.30905426 4292016541
2.4205346 -2.2296968 -0.5212397 4292016541
2.6086855 -2.4038558 0.43556106 4292016541
2.4550104 -2.2630391 -0.4099685 4292016541
2.6459098 -2.4398658 0.57004726 4292016541
2.4734933 -2.2816746 -0.29441211 4292016541
2.6552243 -2.4493124 0.70217711 4292016541
2.4776716 -2.2863295 -0.17668621 4292016541
2.6977503 -2.4902842 0.84761554 4292016541
2.5122156 -2.3198297 -0.059687231 4292016541
2.7245951 -2.5168264 0.99386519 4292016541
2.5247056 -2.3387213 0.060071182 4292016541
2.3556294 -2.1828644 -0.74143869 4292016541
2.5442498 -2.3584769 0.18181513 4292016541
2.3839226 -2.2106302 -0.63195944 4292016541
2.5722818 -2.3861318 0.30696252 4292016541
2.3993137 -2.2264605 -0.51842386 4292016541
2.5799072 -2.3940434 0.43214872 4292016541
2.4179983 -2.2445843 -0.40509373 4292016541
2.620007 -2.4329565 0.56629282 4292016541
2.4479966 -2.2740226 -0.29232034 4292016541
2.6376004 -2.4510095 0.69988745 4292016541
2.4590352 -2.2858765 -0.17595351 4292016541
2.665772 -2.4789224 0.84041709 4292016541
2.4909234 -2.3163295 -0.059373088 4292016541
2.7073061 -2.5184269 0.99075931 4292016541
2.5102689 -2.3425024 0.059931565 4292016541
2.3290942 -2.1741962 -0.73558998 4292016541
2.5239105 -2.3568809 0.18097776 4292016541
2.3532333 -2.197499 -0.62585354 4292016541
2.5552013 -2.3869359 0.30591667 4292016541
2.3828676 -2.2267299 -0.51654667 4292016541
2.559514 -2.3926384 0.43019882 4292016541
2.4068553 -2.25072 -0.40460625 4292016541
2.5908759 -2.423651 0.56191266 4292016541
2.4342239 -2.2771096 -0.29162312 4292016541
2.6175606 -2.44947 0.6968345 4292016541
2.4452085 -2.2889862 -0.17553481 4292016541
2.6371884 -2.4695644 0.83411849 4292016541
2.460526 -2.3049371 -0.058849517 4292016541
2.672684 -2.5045555 0.98144192 4292016541
2.4860473 -2.3361869 0.059547611 4292016541
2.3143911 -2.1756394 -0.73334044 4292016541
2.5011184 -2.3519945 0.17993104 4292016541
2.3341067 -2.1949403 -0.62280059 4292016541
2.5294392 -2.3794589 0.3038249 4292016541
2.3606949 -2.2214966 -0.51341796 4292016541
2.5439196 -2.3947549 0.42898014 4292016541
2.3773069 -2.2386944 -0.40095019 4292016541
2.5637076 -2.4150715 0.55784535 4292016541
2.4001558 -2.2610021 -0.2884855 4292016541
2.5889912 -2.4397416 0.69149184 4292016541
2.4299374 -2.2906578 -0.17501146 4292016541
2.6214633 -2.47207 0.83186901 4292016541
2.4335554 -2.2956734 -0.058395755 4292016541
2.6428494 -2.4939811 0.97367728 4292016541
2.4531856 -2.3214846 0.058954231 4292016541
2.302537 -2.1796858 -0.73199075 4292016541
2.4841917 -2.3524706 0.17930301 4292016541
2.3178775 -2.1949749 -0.62051088 4292016541
2.4979753 -2.3663504 0.30103594 4292016541
2.3357198 -2.2134182 -0.50966352 4292016541
2.5225787 -2.3913286 0.42678648 4292016541
2.3608353 -2.2387834 -0.39948773 4292016541
2.5452304 -2.4144888 0.5556553 4292016541
2.376349 -2.2542825 -0.28656808 4292016541
2.5391607 -2.4095733 0.68042493 4292016541
2.4016473 -2.2798748 -0.17354605 4292016541
2.5958607 -2.4651027 0.8264702 4292016541
2.409579 -2.2890041 -0.0580118 4292016541
2.6215246 -2.4912145 0.96901858 4292016541
2.433486 -2.3189976 0.058674991 4292016541
2.2765777 -2.1702297 -0.72614199 4292016541
2.4615109 -2.3473442 0.17825629 4292016541
2.2931521 -2.1867938 -0.61593145 4292016541
2.4839334 -2.3695545 0.30033869 4292016541
2.3094013 -2.2038293 -0.50559622 4292016541
2.4912422 -2.3781886 0.42288667 4292016541
2.3458281 -2.2401557 -0.39826906 4292016541
2.5267878 -2.4138072 0.55346519 4292016541
2.3612621 -2.2556825 -0.28569651 4292016541
2.5023468 -2.3912945 0.67279255 4292016541
2.370575 -2.2661622 -0.1718713 4292016541
2.5759733 -2.4633739 0.82287097 4292016541
2.3986843 -2.2946367 -0.057941992 4292016541
2.6002507 -2.4883289 0.96435976 4292016541
2.4138336 -2.3164012 0.058395755 4292016541
2.2549303 -2.1646678 -0.72164297 4292016541
2.4331343 -2.3365545 0.17679088 4292016541
2.2741764 -2.1839063 -0.6128785 4292016541
2.4641523 -2.3671684 0.29894418 4292016541
2.2974212 -2.2077708 -0.50465763 4292016541
2.4657528 -2.3703611 0.41996178 4292016541
2.3122389 -2.2235632 -0.39388174 4292016541
2.5041106 -2.4089179 0.55033648 4292016541
2.3461945 -2.2570047 -0.28482497 4292016541
2.4741795 -2.3809559 0.66744989 4292016541
2.3425057 -2.2550311 -0.17040588 4292016541
2.5308623 -2.4372053 0.8111735 4292016541
2.3762584 -2.2891223 -0.057592943 4292016541
2.5706832 -2.4772828 0.95659518 4292016541
2.3927915 -2.3123062 0.058081608 4292016541
2.240355 -2.1657536 -0.71939349 4292016541
2.4077342 -2.3283725 0.17553481 4292016541
2.2496037 -2.1754541 -0.60829914 4292016541
2.4415543 -2.361903 0.29720107 4292016541
2.2783449 -2.2047873 -0.50215465 4292016541
2.4531848 -2.3748119 0.41923055 4292016541
2.294481 -2.2219541 -0.39217559 4292016541
2.4701481 -2.3929043 0.54470485 4292016541
2.3196983 -2.2471595 -0.28255892 4292016541
2.4644434 -2.3882117 0.66706824 4292016541
2.3245814 -2.253463 -0.16967319 4292016541
2.4831686 -2.4080389 0.79857624 4292016541
2.3539007 -2.2834792 -0.057243895 4292016541
2.5509293 -2.4754779 0.95245409 4292016541
2.3732405 -2.3094878 0.057802372 4292016541
2.2271957 -2.1681235 -0.71759385 4292016541
2.3942754 -2.3307717 0.17511612 4292016541
2.227931 -2.1695964 -0.60448295 4292016541
2.4133151 -2.3509474 0.29476073 4292016541
2.263561 -2.2058334 -0.50059032 4292016541
2.4320869 -2.3708897 0.41703692 4292016541
2.2781835 -2.2216341 -0.39071316 4292016541
2.4480569 -2.387291 0.54157621 4292016541
2.2975786 -2.2413301 -0.28081581 4292016541
2.4462564 -2.3872015 0.66439694 4292016541
2.3124139 -2.2573781 -0.16935916 4292016541
2.4608054 -2.4030771 0.79407722 4292016541
2.3334386 -2.2786984 -0.056929749 4292016541
2.5178323 -2.4596245 0.94313669 4292016541
2.3484271 -2.3005528 0.057383511 4292016541
2.1977246 -2.1536739 -0.71039546 4292016541
2.3775673 -2.3307259 0.1744881 4292016541
2.2147369 -2.1718616 -0.60295647 4292016541
2.390871 -2.3454046 0.2930176 4292016541
2.2364917 -2.1939611 -0.49621019 4292016541
2.4100435 -2.3650379 0.41459954 4292016541
2.263721 -2.2222238 -0.38949445 4292016541
2.4270241 -2.3833652 0.53876036 4292016541
2.2826343 -2.2423553 -0.27994424 4292016541
2.4159181 -2.3732872 0.65829104 4292016541
2.2977927 -2.2580345 -0.1688358 4292016541
2.4389262 -2.3975627 0.7895782 4292016541
2.3240449 -2.2854278 -0.056894846 4292016541
2.4665382 -2.4264002 0.92708987 4292016541
2.3232992 -2.2918842 0.056964654 4292016541
2.1735482 -2.1449068 -0.70499659 4292016541
2.3552036 -2.3249795 0.17344138 4292016541
2.2019343 -2.1736772 -0.60143 4292016541
2.3717389 -2.3421204 0.29162312 4292016541
2.2147667 -2.1878722 -0.49308151 4292016541
2.3904772 -2.3622735 0.41264963 4292016541
2.2474799 -2.2217386 -0.38803205 4292016541
