# .PCD v0.7 - Point Cloud Data file format
VERSION 0.7
FIELDS x y z intensity
SIZE 4 4 4 4
TYPE F F F F
COUNT 1 1 1 1
WIDTH 172
HEIGHT 1
VIEWPOINT 0 0 0 1 0 0 0
POINTS 172
DATA ascii
3.0297935 -0.31889096 -0.01092324 100
3.0343001 -0.31308818 -0.0064077121 100
3.0388067 -0.30728537 -0.0018921834 100
3.0433135 -0.30148259 0.0026233452 100
3.0478201 -0.29567981 0.0071388739 100
3.0523267 -0.28987703 0.011654403 100
3.0568333 -0.28407425 0.016169934 100
3.0613399 -0.27827147 0.02068546 100
3.0658464 -0.27246866 0.025200989 100
3.070353 -0.26666588 0.029716516 100
3.0748599 -0.2608631 0.034232043 100
3.0793664 -0.25506032 0.038747571 100
3.083873 -0.24925753 0.0432631 100
3.0883796 -0.24345474 0.047778632 100
3.0928862 -0.23765196 0.052294161 100
3.0973928 -0.23184916 0.056809694 100
3.1018996 -0.22604637 0.061325226 100
3.1064062 -0.22024359 0.065840758 100
3.1109128 -0.21444079 0.070356287 100
3.1154194 -0.20863801 0.074871816 100
3.119926 -0.20283522 0.079387352 100
3.1244326 -0.19703244 0.083902881 100
3.1289394 -0.19122964 0.088418409 100
3.133446 -0.18542686 0.092933945 100
3.1379526 -0.17962407 0.097449474 100
3.1424592 -0.17382127 0.101965 100
3.1469657 -0.16801849 0.10648053 100
3.1514723 -0.16221571 0.11099605 100
3.1559789 -0.15641293 0.11551158 100
3.1604857 -0.15061015 0.1200271 100
3.1649923 -0.14480738 0.12454263 100
3.1694989 -0.1390046 0.12905815 100
3.1740055 -0.13320182 0.13357368 100
3.1785121 -0.12739904 0.13808919 100
3.1830187 -0.12159625 0.14260472 100
3.1875253 -0.11579347 0.14712025 100
3.1920321 -0.10999069 0.15163578 100
3.1965387 -0.10418791 0.15615129 100
3.2010453 -0.098385133 0.16066682 100
3.2055519 -0.092582352 0.16518235 100
3.2100585 -0.086779572 0.16969787 100
3.214565 -0.080976792 0.17421339 100
3.2190716 -0.075174011 0.17872892 100
3.2235782 -0.069371238 0.18324445 100
3.228085 -0.063568458 0.18775997 100
3.2325916 -0.057765674 0.19227549 100
3.2370982 -0.051962893 0.19679102 100
3.2416048 -0.046160113 0.20130654 100
3.2461114 -0.040357333 0.20582207 100
3.250618 -0.034554556 0.21033759 100
3.2551246 -0.028751774 0.21485312 100
3.2596314 -0.022948993 0.21936864 100
3.264138 -0.017146215 0.22388417 100
3.2686446 -0.011343434 0.22839969 100
3.2731512 -0.0055406541 0.23291521 100
3.2776577 0.00026212612 0.23743074 100
3.2821643 0.0060649063 0.24194627 100
3.2866709 0.011867686 0.24646179 100
3.2911775 0.017670466 0.25097731 100
3.277308 0.061875965 0.24692205 100
3.2723379 0.068124183 0.2439478 100
3.2673678 0.074372396 0.24097355 100
3.2623978 0.080620609 0.23799931 100
3.2574279 0.086868823 0.23502505 100
3.2524579 0.093117043 0.23205081 100
3.2474878 0.099365257 0.22907655 100
3.2425177 0.10561347 0.22610231 100
3.2375479 0.11186168 0.22312805 100
3.2325778 0.1181099 0.22015381 100
3.2276077 0.12435812 0.21717957 100
3.2226379 0.13060632 0.21420531 100
3.2176678 0.13685454 0.21123107 100
3.2126977 0.14310277 0.20825681 100
3.2077277 0.14935099 0.20528255 100
3.2027578 0.15559919 0.20230831 100
3.1977878 0.16184741 0.19933406 100
3.1928177 0.16809563 0.19635981 100
3.1878476 0.17434385 0.19338556 100
3.1828778 0.18059207 0.19041131 100
3.1779077 0.1868403 0.18743706 100
3.1729376 0.19308852 0.1844628 100
3.1679676 0.19933674 0.18148856 100
3.1629977 0.20558494 0.1785143 100
3.1580276 0.21183316 0.17554006 100
3.1530576 0.21808138 0.1725658 100
3.1480875 0.22432959 0.16959156 100
3.1431177 0.23057781 0.1666173 100
3.1381476 0.23682602 0.16364306 100
3.1331775 0.24307422 0.16066882 100
3.1282074 0.24932243 0.15769456 100
3.1232376 0.25557065 0.15472032 100
3.1182675 0.26181886 0.15174608 100
3.1132975 0.26806706 0.14877184 100
3.1083276 0.27431527 0.14579758 100
3.1033576 0.28056347 0.14282334 100
3.0983875 0.28681168 0.1398491 100
3.0934174 0.29305989 0.13687484 100
3.0884476 0.29930812 0.1339006 100
3.0834775 0.30555633 0.13092636 100
3.0785074 0.31180453 0.12795211 100
3.0735373 0.31805274 0.12497786 100
3.0685675 0.32430094 0.12200361 100
3.0635974 0.33054915 0.11902937 100
3.0586274 0.33679736 0.11605512 100
3.0536575 0.34304556 0.11308087 100
3.0486875 0.3492938 0.11010662 100
3.0437174 0.355542 0.10713238 100
3.0387473 0.36179021 0.10415813 100
3.0337775 0.36803842 0.10118389 100
3.0288074 0.37428662 0.098209642 100
3.0238373 0.38053483 0.095235392 100
3.0188675 0.38678303 0.09226115 100
3.0138974 0.39303124 0.089286901 100
3.0089273 0.39927948 0.086312659 100
3.2788229 0.026914431 0.28673229 100
3.2730877 0.025836088 0.29305473 100
3.2673523 0.024757747 0.29937717 100
3.2616172 0.023679405 0.30569959 100
3.2558818 0.022601062 0.31202203 100
3.2501466 0.021522721 0.31834447 100
3.2444112 0.02044438 0.32466692 100
3.2386761 0.019366037 0.33098933 100
3.2329407 0.018287696 0.33731177 100
3.2272055 0.017209355 0.34363422 100
3.2214701 0.016131014 0.34995666 100
3.215735 0.015052672 0.35627908 100
3.2099996 0.01397433 0.36260152 100
3.2042644 0.012895988 0.36892396 100
3.198529 0.011817645 0.37524641 100
3.1927938 0.010739303 0.38156882 100
3.1870584 0.0096609611 0.38789126 100
3.1813231 0.008582619 0.39421371 100
3.1755879 0.0075042765 0.40053615 100
3.1698525 0.0064259339 0.40685859 100
3.1641173 0.0053475918 0.41318104 100
3.1583819 0.0042692493 0.41950348 100
3.1526468 0.0031909072 0.42582589 100
3.1469114 0.0021125649 0.43214834 100
3.1411762 0.0010342224 0.43847078 100
3.1354408 -4.4119857e-05 0.44479322 100
3.1297057 -0.0011224606 0.45111567 100
3.1239703 -0.0022008014 0.45743808 100
3.1182351 -0.0032791421 0.46376052 100
3.1124997 -0.0043574828 0.47008294 100
3.1067646 -0.0054358235 0.47640538 100
3.1010292 -0.0065141642 0.4827278 100
3.095294 -0.0075925048 0.48905024 100
3.0895586 -0.008670846 0.49537265 100
3.0838234 -0.0097491862 0.5016951 100
3.078088 -0.010827527 0.50801754 100
3.0723529 -0.011905868 0.51433992 100
3.0666175 -0.012984209 0.52066237 100
3.0608823 -0.014062549 0.52698481 100
3.0551469 -0.01514089 0.53330725 100
3.0494118 -0.01621923 0.5396297 100
3.0436764 -0.017297572 0.54595208 100
3.0379412 -0.018375913 0.55227453 100
3.0322058 -0.019454252 0.55859697 100
3.0264707 -0.020532593 0.56491941 100
3.0207353 -0.021610934 0.5712418 100
3.0150001 -0.022689275 0.57756424 100
3.0092647 -0.023767615 0.58388668 100
3.0035295 -0.024845956 0.59020913 100
2.9977942 -0.025924297 0.59653151 100
2.992059 -0.027002638 0.60285395 100
2.9863236 -0.028080979 0.6091764 100
2.9805884 -0.029159319 0.61549884 100
2.974853 -0.03023766 0.62182128 100
2.9691179 -0.031316001 0.62814367 100
2.9633825 -0.032394342 0.63446611 100
2.9576473 -0.033472683 0.64078856 100
2.9519119 -0.034551024 0.647111 100
