# .PCD v0.7 - Point Cloud Data file format
VERSION 0.7
FIELDS x y z rgb
SIZE 4 4 4 4
TYPE F F F U
COUNT 1 1 1 1
WIDTH 411
HEIGHT 1
VIEWPOINT 0 0 0 1 0 0 0
POINTS 411
DATA ascii
2.9781196 0.3899636 0.052427031 4293012872
2.971462 0.37907264 0.052287407 4293012872
2.9807053 0.36968172 0.052427031 4293012872
2.9859483 0.35975245 0.052496839 4293012872
2.9872468 0.34880665 0.052496839 4293012872
2.9804392 0.33799794 0.052357223 4293012872
2.9815438 0.32811177 0.052357223 4293012872
2.9827261 0.31718233 0.052357223 4293012872
2.9918256 0.30706528 0.052496839 4293012872
3.000787 0.29793176 0.052636456 4293012872
2.9898152 0.28683394 0.052427031 4293012872
2.9868159 0.27602699 0.052357223 4293012872
2.9877613 0.2656 0.052357223 4293012872
3.0006249 0.25618899 0.052566648 4293012872
2.9975574 0.24486451 0.052496839 4293012872
2.8803732 0.23023222 -0.050437454 4293012872
2.9943657 0.23461109 0.052427031 4293012872
3.132175 0.24430862 0.16464894 4293012872
3.0051372 0.22490278 0.052601553 4293012872
3.1369922 0.23366968 0.16485828 4293012872
2.8839049 0.21026324 -0.05047236 4293012872
2.9959307 0.21370076 0.052427031 4293012872
3.1377888 0.22271727 0.16485828 4293012872
2.870657 0.19922535 -0.050228026 4293012872
3.0006843 0.20298786 0.052496839 4293012872
3.1425695 0.2114841 0.16506761 4293012872
2.8693726 0.18857203 -0.050193124 4293012872
3.0053654 0.1927689 0.052566648 4293012872
3.1512616 0.20102097 0.16548631 4293012872
2.8740048 0.17880246 -0.050262932 4293012872
3.0020282 0.18203419 0.052496839 4293012872
3.1678598 0.19153635 0.16632369 4293012872
2.8745821 0.16927151 -0.050262932 4293012872
2.9986224 0.17184986 0.052427031 4293012872
3.1665149 0.18036287 0.16621901 4293012872
2.8871353 0.15990041 -0.05047236 4293012872
3.0111849 0.16202697 0.052636456 4293012872
3.159148 0.16888127 0.16580033 4293012872
2.887676 0.14982069 -0.05047236 4293012872
3.0157266 0.15171514 0.052706268 4293012872
3.1557283 0.15765409 0.16559097 4293012872
2.8841865 0.13954723 -0.050402552 4293012872
3.0122426 0.141001 0.052636456 4293012872
3.1642141 0.14756125 0.16600966 4293012872
2.8766425 0.12962267 -0.050262932 4293012872
3.008698 0.13083811 0.052566648 4293012872
3.1706963 0.13677256 0.16632369 4293012872
2.8890655 0.12007802 -0.05047236 4293012872
3.0091362 0.12033419 0.052566648 4293012872
3.1631713 0.12538816 0.165905 4293012872
2.8934634 0.1101453 -0.050542168 4293012872
3.0075397 0.10975589 0.052531745 4293012872
3.16359 0.11434501 0.165905 4293012872
2.8938303 0.10004379 -0.050542168 4293012872
3.0218947 0.099719234 0.05277608 4293012872
3.1599774 0.10317015 0.16569565 4293012872
2.886167 0.0896926 -0.050402552 4293012872
3.0242233 0.089228421 0.052810986 4293012872
3.168304 0.092374139 0.16611435 4293012872
2.8864625 0.079618059 -0.050402552 4293012872
3.0205183 0.078568012 0.05274117 4293012872
3.1726003 0.081415765 0.16632369 4293012872
2.9027157 0.069927819 -0.050681788 4293012872
3.0207741 0.068024591 0.05274117 4293012872
3.1728652 0.070341498 0.16632369 4293012872
2.9109392 0.059960362 -0.050821409 4293012872
3.0209932 0.057478905 0.05274117 4293012872
3.1730812 0.059818629 0.16632369 4293012872
2.9071236 0.050237112 -0.0507516 4293012872
3.029165 0.047585417 0.052880794 4293012872
3.1732705 0.0487413 0.16632369 4293012872
2.9032817 0.040033128 -0.050681788 4293012872
3.0333118 0.037060864 0.052950602 4293012872
3.1814096 0.037761219 0.16674237 4293012872
2.8994048 0.029857969 -0.050611977 4293012872
3.0294235 0.026436698 0.052880794 4293012872
3.1855164 0.026688416 0.16695172 4293012872
2.90749 0.019792035 -0.0507516 4293012872
3.0254979 0.015843015 0.052810986 4293012872
3.1975737 0.01562644 0.16757976 4293012872
2.9195395 0.0096818926 -0.050961025 4293012872
3.0375326 0.0053020976 0.05302041 4293012872
3.1776361 0.0044375118 0.16653302 4293012872
2.9195554 -0.00050955854 -0.050961025 4293012872
3.041532 -0.00530848 0.053090218 4293012872
3.1816268 -0.0066635925 0.16674237 4293012872
2.9115372 -0.010671388 -0.050821409 4293012872
3.0454946 -0.015946317 0.05316003 4293012872
3.1935675 -0.017836431 0.16737041 4293012872
2.9194806 -0.020891722 -0.050961025 4293012872
3.0414209 -0.026542079 0.053090218 4293012872
3.2014744 -0.029056456 0.16778909 4293012872
2.91939 -0.031082487 -0.050961025 4293012872
3.0453091 -0.03720732 0.05316003 4293012872
3.213336 -0.040382098 0.16841713 4293012872
2.9272618 -0.041385945 -0.051100649 4293012872
3.0491595 -0.047900021 0.053229842 4293012872
3.1991968 -0.051374011 0.16768442 4293012872
2.931098 -0.051674239 -0.051170457 4293012872
3.0569711 -0.058696844 0.053369459 4293012872
3.2049885 -0.062658094 0.16799843 4293012872
2.9189043 -0.061651997 -0.050961025 4293012872
3.0647445 -0.069548778 0.053509079 4293012872
3.2087564 -0.073377199 0.16820778 4293012872
2.9266806 -0.071526535 -0.051100649 4293012872
3.0644968 -0.079711452 0.053509079 4293012872
3.2044876 -0.084472135 0.16799843 4293012872
2.9304104 -0.081853777 -0.051170457 4293012872
3.0602019 -0.090290099 0.053439267 4293012872
3.2001803 -0.095538169 0.16778909 4293012872
2.9341044 -0.092207946 -0.051240265 4293012872
3.0678627 -0.10123546 0.053578887 4293012872
2.9417589 -0.10272848 -0.051379886 4293012872
3.075484 -0.11223539 0.053718507 4293012872
2.9293928 -0.11253592 -0.051170457 4293012872
3.0790699 -0.12312996 0.053788319 4293012872
2.9409702 -0.12326315 -0.051379886 4293012872
3.0786211 -0.13387717 0.053788319 4293012872
2.9445169 -0.13370973 -0.051449694 4293012872
3.0701451 -0.14424734 0.053648699 4293012872
2.9560158 -0.1445733 -0.051659122 4293012872
3.0875974 -0.15587066 0.053962842 4293012872
2.9554932 -0.15489085 -0.051659122 4293012872
3.0930245 -0.16697082 0.054067552 4293012872
2.9429553 -0.16453673 -0.051449694 4293012872
3.1004088 -0.17822552 0.054207176 4293012872
2.9503782 -0.174768 -0.051589314 4293012872
3.0938127 -0.18814172 0.054102462 4293012872
2.9457586 -0.18481524 -0.051519506 4293012872
3.0891459 -0.19868328 0.05403265 4293012872
2.9570677 -0.19588983 -0.051728934 4293012872
3.0924239 -0.20973586 0.054102462 4293012872
2.9683349 -0.20704558 -0.051938362 4293012872
3.0916729 -0.22052915 0.054102462 4293012872
2.9596167 -0.21682133 -0.051798742 4293012872
3.0868959 -0.23102126 0.05403265 4293012872
2.9628296 -0.22745714 -0.05186855 4293012872
2.9640107 -0.23795797 -0.05190346 4293012872
2.9751182 -0.24930476 -0.052112885 4293012872
2.9742751 -0.25916922 -0.052112885 4293012872
2.9733994 -0.26903087 -0.052112885 4293012872
2.9724422 -0.27940831 -0.052112885 4293012872
2.9794099 -0.29055876 -0.052252505 4293012872
2.9902618 -0.30268517 -0.052461933 4293012872
2.9931648 -0.31353799 -0.052531745 4293012872
2.9841561 -0.32260224 -0.052392125 4293012872
2.9849992 -0.33323881 -0.052427031 4293012872
3.273386 0.026851712 0.28639376 4286535759
3.2734599 0.015427549 0.28639376 4286535759
3.2555618 0.0039781644 0.28482497 4286535759
3.1741617 0.0027707708 0.3897382 4286535759
3.2396169 -0.0073504699 0.28343046 4286535759
3.1602564 -0.0082735494 0.38803205 4286535759
3.0815742 -0.0091432417 0.48807558 4286535759
3.0155437 -0.0094736414 0.58616525 4286535759
3.2316022 -0.018612897 0.28273323 4286535759
3.1602082 -0.019304853 0.38803205 4286535759
3.0736222 -0.019848863 0.48682413 4286535759
3.0096028 -0.019960735 0.58502042 4286535759
3.2115943 -0.029708879 0.28099012 4286535759
3.1462264 -0.030202536 0.38632584 4286535759
3.063658 -0.030479429 0.48525977 4286535759
2.9996991 -0.030366719 0.58311236 4286535759
2.9404879 -0.030793838 0.67890227 4286535759
3.1995177 -0.040766951 0.27994424 4286535759
3.1103733 -0.040717017 0.38193855 4286535759
3.0655079 -0.041199949 0.48557264 4286535759
2.9897594 -0.040703807 0.58120424 4286535759
2.9442594 -0.041112285 0.67980206 4286535759
3.1933796 -0.051838096 0.2794213 4286535759
3.102273 -0.051442347 0.38096359 4286535759
3.0455945 -0.051565908 0.48244393 4286535759
2.9719324 -0.050837558 0.57776964 4286535759
2.9051292 -0.050709218 0.67080402 4286535759
3.1772432 -0.062670417 0.27802682 4286535759
3.0901663 -0.062031947 0.37950116 4286535759
3.0216963 -0.061712682 0.47868952 4286535759
2.9776254 -0.061332516 0.57891452 4286535759
3.1590784 -0.073344477 0.27645802 4286535759
3.0859618 -0.072724722 0.37901369 4286535759
3.0175257 -0.071638882 0.47806379 4286535759
2.9656169 -0.071442313 0.57662481 4286535759
3.1388865 -0.083839297 0.27471489 4286535759
3.0777662 -0.082744345 0.37803873 4286535759
3.0093582 -0.081956461 0.4768123 4286535759
2.9457383 -0.080738358 0.57280862 4286535759
3.134608 -0.094128154 0.27436629 4286535759
3.0476959 -0.092583112 0.37438264 4286535759
3.0011563 -0.092217907 0.47556084 4286535759
2.9258153 -0.090414017 0.56899244 4286535759
3.1838584 -0.10617576 0.16695172 4286535759
3.1262953 -0.10480239 0.27366903 4286535759
3.0374343 -0.10288498 0.37316394 4286535759
2.992919 -0.10242308 0.47430936 4286535759
2.917634 -0.10035652 0.56746602 4286535759
3.1675012 -0.11670058 0.16611435 4286535759
3.1139646 -0.11527234 0.27262318 4286535759
3.0370567 -0.11348698 0.37316394 4286535759
2.9767516 -0.11227408 0.47180638 4286535759
2.9113803 -0.11031733 0.56632113 4286535759
3.1570961 -0.12735398 0.16559097 4286535759
3.0956264 -0.12541552 0.27105436 4286535759
3.0267248 -0.12368235 0.37194526 4286535759
2.9526572 -0.12168809 0.46805197 4286535759
2.9109774 -0.12047927 0.56632113 4286535759
3.152642 -0.13819861 0.16538164 4286535759
3.0752649 -0.13534451 0.26931125 4286535759
3.0183423 -0.13389495 0.37097031 4286535759
2.9522145 -0.13199405 0.46805197 4286535759
2.8948488 -0.12993549 0.56326818 4286535759
3.1401703 -0.14863597 0.16475362 4286535759
3.0727835 -0.14598382 0.26913694 4286535759
3.0000112 -0.14357607 0.36877668 4286535759
2.9497626 -0.14220329 0.46773914 4286535759
2.8688853 -0.13880619 0.55830717 4286535759
3.1196852 -0.15858231 0.1637069 4286535759
3.0662861 -0.15640445 0.26861399 4286535759
2.9796667 -0.15302901 0.36633927 4286535759
2.9393847 -0.15198898 0.46617478 4286535759
2.8683834 -0.14881963 0.55830717 4286535759
3.0991693 -0.1683875 0.16266017 4286535759
3.0478165 -0.16613086 0.2670452 4286535759
2.9672217 -0.16277665 0.36487687 4286535759
2.9131954 -0.16083282 0.46210748 4286535759
2.8580449 -0.1582884 0.55639905 4286535759
3.0866303 -0.17797397 0.16203214 4286535759
3.0273273 -0.17561486 0.26530206 4286535759
2.9626722 -0.17290188 0.36438939 4286535759
2.9008141 -0.16979986 0.46023026 4286535759
2.8555152 -0.16814849 0.5560174 4286535759
3.0899773 -0.18899111 0.16224147 4286535759
3.0187416 -0.18569185 0.26460484 4286535759
2.9541571 -0.18223661 0.36341441 4286535759
2.8962603 -0.17967992 0.45960453 4286535759
3.0813265 -0.19926043 0.1618228 4286535759
3.0161209 -0.19557241 0.26443052 4286535759
2.9336944 -0.19125605 0.36097702 4286535759
2.8798466 -0.18875512 0.45710155 4286535759
3.0527153 -0.20811325 0.16035739 4286535759
3.0034931 -0.20528425 0.26338464 4286535759
2.9211261 -0.20067905 0.35951459 4286535759
2.8831112 -0.19907863 0.45772728 4286535759
3.0400171 -0.21791112 0.15972935 4286535759
2.9888477 -0.21476761 0.26216447 4286535759
2.912488 -0.21030262 0.35853964 4286535759
2.8548162 -0.20714001 0.45334715 4286535759
3.0312715 -0.22792245 0.15931067 4286535759
2.9721856 -0.22400145 0.26076996 4286535759
2.9077773 -0.22016807 0.35805216 4286535759
2.8383181 -0.21590526 0.4508442 4286535759
3.0721157 -0.24070178 0.053788319 4286535759
3.0224931 -0.23787539 0.15889199 4286535759
2.9594684 -0.23343495 0.25972411 4286535759
2.8990755 -0.22968958 0.35707721 4286535759
2.8336089 -0.22549811 0.45021844 4286535759
3.0553129 -0.25011873 0.053509079 4286535759
3.0176632 -0.24809709 0.15868263 4286535759
2.95665 -0.2436004 0.2595498 4286535759
2.8725379 -0.23767988 0.3539086 4286535759
2.8288672 -0.23506072 0.44959271 4286535759
3.0424659 -0.25976157 0.053299651 4286535759
2.9969239 -0.25640011 0.15763591 4286535759
2.9478409 -0.25323737 0.25885254 4286535759
2.8677351 -0.24736427 0.35342112 4286535759
3.0475636 -0.27037948 0.053404365 4286535759
2.9761631 -0.26456836 0.1565892 4286535759
2.8629446 -0.25651836 0.35293365 4286535759
3.0347025 -0.27938411 0.053194933 4286535759
2.9712439 -0.2745879 0.15637985 4286535759
2.9282417 -0.27112931 0.25728375 4286535759
2.8462658 -0.26454112 0.35098374 4286535759
3.0098214 -0.28769222 0.05277608 4286535759
2.9662912 -0.28457636 0.15617052 4286535759
2.9073961 -0.27995041 0.25554064 4286535759
2.8413732 -0.27409363 0.35049626 4286535759
2.9968071 -0.29753646 0.052566648 4286535759
2.9612534 -0.29505044 0.15596117 4286535759
2.9024363 -0.28970164 0.25519201 4286535759
2.8265233 -0.28312102 0.34879011 4286535759
2.9877937 -0.30717739 0.052427031 4286535759
2.9323914 -0.30251592 0.15449576 4286535759
2.978749 -0.31675902 0.052287407 4286535759
2.919456 -0.31096914 0.15386772 4286535759
2.8844941 -0.30826348 0.25379753 4286535759
2.9776824 -0.32663518 0.052287407 4286535759
2.906441 -0.31984723 0.1532397 4286535759
2.8635969 -0.31614402 0.25205442 4286535759
2.9487059 -0.3338775 0.051798742 4286535759
2.909276 -0.33044145 0.15344904 4286535759
2.9356055 -0.34277683 0.051589314 4286535759
2.9041374 -0.34013003 0.1532397 4286535759
2.9561682 -0.35616526 0.051973268 4286535759
2.9863131 0.43299538 0.052671362 4286202638
2.9307714 0.41450271 0.1551238 4286202638
2.9375529 0.39456233 0.15533313 4286202638
2.952775 0.38611934 0.15606584 4286202638
2.9640112 0.37706932 0.1565892 4286202638
2.973238 0.36770329 0.15700789 4286202638
2.8849809 0.35627589 0.25432047 4286202638
2.9824352 0.35827455 0.15742657 4286202638
2.9040713 0.34783262 0.25588927 4286202638
3.0035059 0.35017383 0.15847328 4286202638
2.90131 0.33723256 0.25554064 4286202638
3.012589 0.34111139 0.15889199 4286202638
2.9182506 0.32939795 0.25693512 4286202638
3.0256734 0.33190072 0.15952002 4286202638
2.93121 0.3210195 0.25798097 4286202638
3.0228975 0.3203871 0.15931067 4286202638
2.9402924 0.31111315 0.25867823 4286202638
2.8289502 0.29833356 0.34927759 4286202638
3.0359185 0.31105533 0.15993871 4286202638
2.9533055 0.30154932 0.25972411 4286202638
2.8438489 0.28936884 0.35098374 4286202638
3.0488582 0.30216715 0.16056673 4286202638
2.9622202 0.29253653 0.26042137 4286202638
2.8566461 0.2811037 0.35244617 4286202638
3.0697763 0.29342386 0.16161345 4286202638
2.9631739 0.28271246 0.26042137 4286202638
2.8733721 0.27313116 0.3543961 4286202638
3.0787375 0.28343815 0.16203214 4286202638
2.980015 0.27382499 0.26181585 4286202638
2.8703542 0.26273826 0.3539086 4286202638
3.0836871 0.27304113 0.16224147 4286202638
3.0007992 0.26517555 0.26355895 4286202638
2.879164 0.25341269 0.35488355 4286202638
3.0886014 0.26261592 0.16245082 4286202638
3.0136185 0.25570911 0.26460484 4286202638
2.8998113 0.24503441 0.35732093 4286202638
2.8187776 0.23719482 0.44802836 4286202638
3.1034338 0.2529681 0.16318353 4286202638
3.0145352 0.24466261 0.26460484 4286202638
2.9165189 0.23568144 0.35927087 4286202638
2.83534 0.22862472 0.4505313 4286202638
3.0233164 0.23475456 0.26530206 4286202638
2.9252009 0.22662391 0.36024579 4286202638
2.8262734 0.21796595 0.44896698 4286202638
3.0320261 0.2253188 0.26599932 4286202638
2.9299335 0.21670371 0.36073327 4286202638
2.8486874 0.20969489 0.45240852 4286202638
3.0527055 0.21560872 0.26774243 4286202638
2.9346328 0.20675327 0.36122078 4286202638
2.8572843 0.20030299 0.45366001 4286202638
3.0613916 0.20548442 0.26843968 4286202638
2.9512165 0.19705458 0.36317068 4286202638
2.8540571 0.1895666 0.45303425 4286202638
3.077997 0.19580948 0.26983419 4286202638
2.9716976 0.18800431 0.36560807 4286202638
2.8704734 0.18059582 0.45553723 4286202638
3.086617 0.18554147 0.27053142 4286202638
2.9802618 0.1781043 0.36658302 4286202638
2.8828874 0.17178015 0.45741442 4286202638
3.0912242 0.17499189 0.27088004 4286202638
2.9887636 0.1686684 0.36755794 4286202638
2.8992476 0.16260147 0.45991737 4286202638
3.1236205 0.16643685 0.27366903 4286202638
2.9932988 0.1584437 0.36804545 4286202638
2.9116337 0.15310182 0.46179458 4286202638
3.1281624 0.15572965 0.27401763 4286202638
3.0017643 0.14838685 0.3690204 4286202638
2.9160964 0.14313029 0.46242031 4286202638
3.1366482 0.14517704 0.27471489 4286202638
3.022094 0.13881792 0.37145779 4286202638
2.9303679 0.13409205 0.4646104 4286202638
3.1490788 0.13473886 0.27576074 4286202638
3.0384042 0.12947223 0.37340769 4286202638
2.9446337 0.12444682 0.46680051 4286202638
2.848124 0.11987016 0.55410933 4286202638
3.1534903 0.12445319 0.2761094 4286202638
3.0428047 0.11902124 0.37389517 4286202638
2.962815 0.11485525 0.46961632 4286202638
2.8524487 0.11007965 0.55487263 4286202638
3.1738164 0.11416004 0.27785251 4286202638
3.0471694 0.10853966 0.37438264 4286202638
2.9750431 0.10493223 0.47149354 4286202638
2.8685119 0.10067218 0.55792552 4286202638
3.194109 0.10372801 0.27959561 4286202638
3.0673704 0.098538958 0.37682006 4286202638
2.9773655 0.094608687 0.47180638 4286202638
2.8904309 0.091339931 0.5621233 4286202638
3.2024179 0.092807859 0.28029287 4286202638
3.079601 0.088174231 0.37828246 4286202638
2.9836013 0.084381916 0.472745 4286202638
2.8907323 0.081251875 0.5621233 4286202638
3.2027221 0.081629448 0.28029287 4286202638
3.0997348 0.07792192 0.38071984 4286202638
2.9996758 0.074358925 0.47524795 4286202638
2.8968861 0.071304999 0.56326818 4286202638
3.2189229 0.070800535 0.28168735 4286202638
3.0960188 0.06701608 0.38023239 4286202638
3.0137417 0.064181268 0.47743803 4286202638
2.9088943 0.061441906 0.5655579 4286202638
3.2510233 0.060152847 0.28447634 4286202638
3.1160815 0.056568034 0.38266978 4286202638
3.023813 0.054365132 0.47900239 4286202638
2.9228318 0.051529068 0.5682292 4286202638
3.2631664 0.048984401 0.28552222 4286202638
3.1321311 0.046469148 0.38461968 4286202638
3.0338604 0.043953441 0.48056671 4286202638
2.9347649 0.042004097 0.57051897 4286202638
3.2593262 0.03811558 0.28517357 4286202638
3.1481538 0.035716504 0.38656959 4286202638
3.0359704 0.033383936 0.4808796 4286202638
2.9584513 0.032015145 0.57509834 4286202638
3.1581848 0.024805799 0.3877883 4286202638
3.0538466 0.022920288 0.48369545 4286202638
2.9585447 0.021688651 0.57509834 4286202638
3.158252 0.013780684 0.3877883 4286202638
3.081563 0.012370437 0.48807558 4286202638
2.9625289 0.011375559 0.57586157 4286202638
3.0855381 0.0016149473 0.48870131 4286202638
2.9880731 0.0010438738 0.58082259 4286202638
