# .PCD v0.7 - Point Cloud Data file format
VERSION 0.7
FIELDS x y z rgb
SIZE 4 4 4 4
TYPE F F F U
COUNT 1 1 1 1
WIDTH 328
HEIGHT 1
VIEWPOINT 0 0 0 1 0 0 0
POINTS 328
DATA ascii
2.8976972 0.23925273 -0.0507516 4281278609
2.8885472 0.22834906 -0.050577074 4281278609
2.8833447 0.21781211 -0.05047236 4281278609
2.8820927 0.20760156 -0.050437454 4281278609
2.8768146 0.19713178 -0.05033274 4281278609
2.8734944 0.18682836 -0.050262932 4281278609
2.8781207 0.17704304 -0.05033274 4281278609
2.8867068 0.16745791 -0.05047236 4281278609
2.8912671 0.1575973 -0.050542168 4281278609
2.8917997 0.14750454 -0.050542168 4281278609
2.8843071 0.13702904 -0.050402552 4281278609
2.8807724 0.12678622 -0.05033274 4281278609
2.8851731 0.11739434 -0.050402552 4281278609
2.9015515 0.1079163 -0.050681788 4281278609
2.9019108 0.097787939 -0.050681788 4281278609
2.8902419 0.08729618 -0.05047236 4281278609
2.8825328 0.076992474 -0.05033274 4281278609
2.9027755 0.067394845 -0.050681788 4281278609
2.902993 0.057261087 -0.050681788 4281278609
2.9071746 0.047192931 -0.0507516 4281278609
2.8993232 0.036942028 -0.050611977 4281278609
2.8994346 0.026820503 -0.050611977 4281278609
2.9115055 0.017277261 -0.050821409 4281278609
2.9155474 0.007124491 -0.050891217 4281278609
2.9195545 -0.0025477922 -0.050961025 4281278609
2.9114628 -0.023375221 -0.050821409 4281278609
2.9233608 -0.033676185 -0.051030833 4281278609
2.9312234 -0.044000473 -0.051170457 4281278609
2.931052 -0.054232076 -0.051170457 4281278609
2.9188607 -0.063689768 -0.050961025 4281278609
2.9266298 -0.073569722 -0.051100649 4281278609
2.9303527 -0.083899572 -0.051170457 4281278609
2.9380364 -0.094384715 -0.051310074 4281278609
2.9456646 -0.10543867 -0.051449694 4281278609
2.9332898 -0.11524928 -0.051240265 4281278609
2.9368873 -0.12514605 -0.051310074 4281278609
2.940428 -0.13558115 -0.051379886 4281278609
2.9519198 -0.14643879 -0.051589314 4281278609
2.9553843 -0.15695412 -0.051659122 4281278609
2.9468324 -0.16681731 -0.051519506 4281278609
2.9502244 -0.17734262 -0.051589314 4281278609
2.9535787 -0.18789364 -0.051659122 4281278609
2.9608858 -0.19873811 -0.051798742 4281278609
2.9681528 -0.20963588 -0.051938362 4281278609
2.9594646 -0.21888749 -0.051798742 4281278609
2.9507074 -0.22859874 -0.051659122 4281278609
2.965837 -0.2401886 -0.051938362 4281278609
2.9769361 -0.25155008 -0.052147791 4281278609
2.9760399 -0.26193997 -0.052147791 4281278609
2.9751072 -0.27232674 -0.052147791 4281278609
2.9701571 -0.28233168 -0.052077983 4281278609
2.9890542 -0.2946595 -0.052427031 4281278609
2.9919863 -0.30549771 -0.052496839 4281278609
2.9909015 -0.31593981 -0.052496839 4281278609
2.9937561 -0.32681209 -0.052566648 4281278609
2.9727602 0.42891169 0.052427031 4281278609
2.9835351 0.40975508 0.052566648 4281278609
2.9849474 0.39933729 0.052566648 4281278609
2.9744258 0.38736665 0.052357223 4281278609
2.9757597 0.37698078 0.052357223 4281278609
2.9849961 0.36757079 0.052496839 4281278609
2.9862611 0.35714817 0.052496839 4281278609
2.9874895 0.3467212 0.052496839 4281278609
2.9807332 0.33539703 0.052357223 4281278609
2.9818857 0.32498953 0.052357223 4281278609
2.9849904 0.31478912 0.052392125 4281278609
2.9880605 0.30456963 0.052427031 4281278609
2.9930856 0.2945298 0.052496839 4281278609
2.9900644 0.28422347 0.052427031 4281278609
2.9870558 0.27342054 0.052357223 4281278609
2.987992 0.26299131 0.052357223 4281278609
3.0008471 0.25357196 0.052566648 4281278609
3.0096867 0.24374038 0.052706268 4281278609
2.9885883 0.2315347 0.052322313 4281278609
2.9893782 0.22110036 0.052322313 4281278609
2.9981108 0.21122548 0.052461933 4281278609
3.008806 0.20142734 0.052636456 4281278609
3.0054994 0.19067083 0.052566648 4281278609
3.0021544 0.17993988 0.052496839 4281278609
3.006757 0.16968386 0.052566648 4281278609
3.0073311 0.15918647 0.052566648 4281278609
3.0158577 0.14908352 0.052706268 4281278609
3.0143621 0.13846275 0.052671362 4281278609
3.0128069 0.12838146 0.052636456 4281278609
3.0012476 0.11739571 0.052427031 4281278609
3.0136297 0.10734499 0.052636456 4281278609
3.0219808 0.097080812 0.05277608 4281278609
3.0262988 0.086648092 0.052845888 4281278609
3.0185866 0.075881995 0.052706268 4281278609
3.0168338 0.065302052 0.052671362 4281278609
3.0210421 0.054842729 0.05274117 4281278609
3.0332122 0.044472076 0.052950602 4281278609
3.0333488 0.033884563 0.052950602 4281278609
3.0294495 0.023264471 0.052880794 4281278609
3.02951 0.013218933 0.052880794 4281278609
3.0455272 -0.0074416418 0.05316003 4281278609
3.0494788 -0.018628437 0.053229842 4281278609
3.0333984 -0.02911943 0.052950602 4281278609
3.0412762 -0.03981249 0.053090218 4281278609
3.0531154 -0.050627209 0.053299651 4281278609
3.0529201 -0.061284263 0.053299651 4281278609
3.0646951 -0.071688347 0.053509079 4281278609
3.060442 -0.08174406 0.053439267 4281278609
3.060138 -0.092426509 0.053439267 4281278609
3.0677733 -0.10391263 0.053578887 4281278609
3.0713882 -0.11476986 0.053648699 4281278609
3.0749869 -0.12511691 0.053718507 4281278609
3.078527 -0.13602641 0.053788319 4281278609
3.0740128 -0.14711769 0.053718507 4281278609
3.0775025 -0.15751509 0.053788319 4281278609
3.0929074 -0.1691301 0.054067552 4281278609
3.0982871 -0.1802738 0.05417227 4281278609
3.0896556 -0.19059525 0.05403265 4281278609
3.0889714 -0.201379 0.05403265 4281278609
3.0922024 -0.21297412 0.054102462 4281278609
3.0914793 -0.22322707 0.054102462 4281278609
3.0867338 -0.23317626 0.05403265 4281278609
3.0719469 -0.24284644 0.053788319 4281278609
3.1096258 0.25074148 0.16349754 4281278609
3.1323872 0.24157384 0.16464894 4281278609
3.1411786 0.23122546 0.16506761 4281278609
3.1459515 0.22053932 0.16527697 4281278609
3.1427162 0.20929025 0.16506761 4281278609
3.1593742 0.19932558 0.165905 4281278609
3.1640382 0.18853286 0.16611435 4281278609
3.166671 0.17759967 0.16621901 4281278609
3.1592939 0.16612448 0.16580033 4281278609
3.1598547 0.15509464 0.16580033 4281278609
3.1623716 0.14415684 0.165905 4281278609
3.1728098 0.13409005 0.16642836 4281278609
3.1672714 0.12278112 0.16611435 4281278609
3.1596963 0.11144511 0.16569565 4281278609
3.1640584 0.10054105 0.165905 4281278609
3.1723762 0.089720823 0.16632369 4281278609
3.1686769 0.078548297 0.16611435 4281278609
3.176919 0.067656323 0.16653302 4281278609
3.169148 0.056424845 0.16611435 4281278609
3.1774533 0.034385093 0.16653302 4281278609
3.1895971 0.012804123 0.16716106 4281278609
3.1856158 -0.0088959401 0.16695172 4281278609
3.1975451 -0.020649133 0.16757976 4281278609
3.2071385 -0.054301061 0.16810311 4281278609
3.2049439 -0.064895578 0.16799843 4281278609
3.2087045 -0.075617321 0.16820778 4281278609
3.208421 -0.086817317 0.16820778 4281278609
3.1961203 -0.097650312 0.16757976 4281278609
3.0551374 -0.25225168 0.053509079 4294154502
3.0482609 -0.26240003 0.053404365 4294154502
3.0393121 -0.27285552 0.053264745 4294154502
3.0344083 -0.2825619 0.053194933 4294154502
3.0095184 -0.29084396 0.05277608 4294154502
2.9965465 -0.30015153 0.052566648 4294154502
2.9915025 -0.31019711 0.052496839 4294154502
2.9744949 -0.318932 0.052217599 4294154502
2.969331 -0.32939097 0.052147791 4294154502
2.9364343 -0.33560279 0.051589314 4294154502
2.9392772 -0.34580579 0.051659122 4294154502
3.1757801 -0.10868091 0.16653302 4294154502
3.1574187 -0.11908831 0.16559097 4294154502
3.1570065 -0.12955803 0.16559097 4294154502
3.1445637 -0.14004409 0.16496295 4294154502
3.1400657 -0.15082818 0.16475362 4294154502
3.1155844 -0.16055466 0.16349754 4294154502
3.0950625 -0.1703316 0.16245082 4294154502
3.0864739 -0.1806675 0.16203214 4294154502
3.0818377 -0.19119288 0.1618228 4294154502
3.0691936 -0.20116559 0.16119476 4294154502
3.0485473 -0.210502 0.16014804 4294154502
3.0358803 -0.21974504 0.15952002 4294154502
3.0271287 -0.22973633 0.15910132 4294154502
3.0183442 -0.2396692 0.15868263 4294154502
3.0095277 -0.24954358 0.15826395 4294154502
2.9847603 -0.25798342 0.15700789 4294154502
2.9758844 -0.26768485 0.1565892 4294154502
2.9709547 -0.27769923 0.15637985 4294154502
2.9620156 -0.28729689 0.15596117 4294154502
2.9490714 -0.29643592 0.15533313 4294154502
2.9281533 -0.30466142 0.15428641 4294154502
2.9191287 -0.31402621 0.15386772 4294154502
2.9100745 -0.32333174 0.15344904 4294154502
2.9050179 -0.33252588 0.1532397 4294154502
2.9138169 -0.343326 0.15376306 4294154502
3.2435942 -0.010190085 0.28377908 4294154502
3.1853647 -0.05448851 0.27872407 4294154502
3.1550429 -0.075454645 0.2761094 4294154502
3.1305416 -0.096740499 0.27401763 4294154502
3.1222203 -0.10739359 0.27332041 4294154502
3.1138422 -0.11853322 0.27262318 4294154502
3.077136 -0.13811746 0.26948556 4294154502
3.068675 -0.1484727 0.26878831 4294154502
3.0621688 -0.15887375 0.26826537 4294154502
3.0476997 -0.16825859 0.2670452 4294154502
3.0311821 -0.17796184 0.26565069 4294154502
3.0146339 -0.18755184 0.26425621 4294154502
3.0099504 -0.19833778 0.26390758 4294154502
3.0052643 -0.20856735 0.26355895 4294154502
2.9966075 -0.21795388 0.2628617 4294154502
2.9720285 -0.22607635 0.26076996 4294154502
2.9593048 -0.23550098 0.25972411 4294154502
2.9584649 -0.24582945 0.25972411 4294154502
2.9496038 -0.25598204 0.25902686 4294154502
2.9407551 -0.26555979 0.25832963 4294154502
2.9160061 -0.27358988 0.25623786 4294154502
2.9071507 -0.28248745 0.25554064 4294154502
2.9021823 -0.29223439 0.25519201 4294154502
2.8932176 -0.30153695 0.25449476 4294154502
2.8802078 -0.31085637 0.2534489 4294154502
2.8632643 -0.31914261 0.25205442 4294154502
3.1682074 -0 0.38900697 4294154502
3.102227 -0.054149572 0.38096359 4294154502
3.0697703 -0.084674068 0.37706378 4294154502
3.0274241 -0.10519095 0.37194526 4294154502
3.0187044 -0.12546563 0.37097031 4294154502
3.0063496 -0.13546596 0.36950788 4294154502
2.9860055 -0.14551763 0.3670705 4294154502
2.9690895 -0.16495824 0.36512056 4294154502
2.9605691 -0.17485315 0.36414564 4294154502
2.9480534 -0.18444267 0.36268318 4294154502
2.9275837 -0.19342349 0.36024579 4294154502
2.9149737 -0.20332359 0.35878339 4294154502
2.906364 -0.21241006 0.35780841 4294154502
2.901685 -0.22174424 0.35732093 4294154502
2.8929782 -0.23123896 0.35634598 4294154502
2.8703933 -0.23952019 0.35366488 4294154502
2.8537185 -0.24816243 0.35171497 4294154502
2.8527896 -0.25862014 0.35171497 4294154502
2.8479638 -0.26770738 0.35122749 4294154502
2.8312061 -0.27610558 0.34927759 4294154502
2.8322001 -0.28618622 0.34952128 4294154502
3.0835633 -0.00053818332 0.48838848 4294154502
3.0475235 -0.054258835 0.48275682 4294154502
3.0132496 -0.084167682 0.47743803 4294154502
2.9687569 -0.11456706 0.47055492 4294154502
2.9521215 -0.13405505 0.46805197 4294154502
2.9457166 -0.14406957 0.46711335 4294154502
2.9130824 -0.16286658 0.46210748 4294154502
2.9006646 -0.17233123 0.46023026 4294154502
2.8961024 -0.1822073 0.45960453 4294154502
2.867172 -0.20049217 0.45522434 4294154502
2.8507304 -0.20884433 0.45272139 4294154502
2.8342276 -0.21758433 0.45021844 4294154502
2.8295126 -0.22716014 0.44959271 4294154502
2.8287024 -0.2370356 0.44959271 4294154502
2.9350877 0.41249964 0.15533313 4289445428
2.9398756 0.392263 0.1554378 4289445428
2.9590528 0.38431284 0.15637985 4289445428
2.976228 0.3759861 0.15721723 4289445428
2.9735577 0.36510724 0.15700789 4289445428
2.9787803 0.35519895 0.15721723 4289445428
2.9998424 0.3470937 0.15826395 4289445428
3.0169144 0.33840042 0.15910132 4289445428
3.0299904 0.32916224 0.15972935 4289445428
3.0311208 0.31858423 0.15972935 4289445428
3.0401628 0.3088097 0.16014804 4289445428
3.0610471 0.30067804 0.16119476 4289445428
3.0700314 0.29074359 0.16161345 4289445428
3.0869393 0.28147843 0.16245082 4289445428
3.0879033 0.27070045 0.16245082 4289445428
3.0888295 0.2599192 0.16245082 4289445428
2.8728714 0.37261143 0.2534489 4289445428
2.8833127 0.35351717 0.25414613 4289445428
2.9043136 0.34580523 0.25588927 4289445428
2.9094613 0.33612168 0.25623786 4289445428
2.9106169 0.32596436 0.25623786 4289445428
2.9315445 0.31794995 0.25798097 4289445428
2.9484887 0.30937898 0.25937548 4289445428
2.9574797 0.29988816 0.26007274 4289445428
2.9585085 0.28956342 0.26007274 4289445428
2.9753697 0.28073236 0.26146722 4289445428
2.9762845 0.27086332 0.26146722 4289445428
3.0010295 0.26255548 0.26355895 4289445428
3.0178108 0.25341415 0.26495346 4289445428
3.018677 0.24287769 0.26495346 4289445428
3.0195065 0.23233826 0.26495346 4289445428
3.0401695 0.22325663 0.26669657 4289445428
3.0568306 0.21375413 0.26809105 4289445428
3.0694861 0.20387541 0.26913694 4289445428
3.0662022 0.1929101 0.26878831 4289445428
3.082768 0.18315035 0.27018279 4289445428
3.0993028 0.17327876 0.2715773 4289445428
3.1237645 0.16370958 0.27366903 4289445428
3.132277 0.15319459 0.27436629 4289445428
3.1407542 0.14262065 0.27506351 4289445428
3.1451912 0.13237295 0.27541214 4289445428
3.161561 0.12200868 0.27680662 4289445428
3.1818793 0.11167 0.27854973 4289445428
3.1981812 0.10106508 0.27994424 4289445428
3.1985145 0.08990293 0.27994424 4289445428
3.2289431 0.068202004 0.28255892 4289445428
3.2632082 0.046135351 0.28552222 4289445428
2.850749 0.31825081 0.35220242 4289445428
2.833158 0.29627779 0.34976503 4289445428
2.8499751 0.2879836 0.35171497 4289445428
2.8628178 0.2791889 0.3531774 4289445428
2.8716331 0.2704376 0.35415235 4289445428
2.8725595 0.26041269 0.35415235 4289445428
2.8892717 0.25176316 0.35610226 4289445428
2.9020023 0.24266794 0.35756469 4289445428
2.9226191 0.23412232 0.36000207 4289445428
2.9273772 0.22422148 0.36048955 4289445428
2.9321015 0.21429166 0.36097702 4289445428
2.940753 0.20460714 0.36195198 4289445428
2.9572952 0.19538692 0.36390188 4289445428
2.973809 0.18605509 0.36585179 4289445428
2.9863303 0.17637488 0.36731425 4289445428
2.9869277 0.16595019 0.36731425 4289445428
3.0118067 0.14624737 0.37023908 4289445428
3.0301466 0.13653962 0.37243277 4289445428
3.0424829 0.12698638 0.37389517 4289445428
3.0429075 0.11636456 0.37389517 4289445428
3.0634871 0.095739752 0.37633255 4289445428
3.103771 0.075313337 0.38120735 4289445428
3.1361477 0.043244097 0.38510716 4289445428
2.8260186 0.24525762 0.44927984 4289445428
2.8150463 0.23440719 0.44740263 4289445428
2.8316004 0.22583506 0.44990557 4289445428
2.8382802 0.21640202 0.4508442 4289445428
2.8587201 0.20792548 0.45397288 4289445428
2.8613989 0.19808243 0.45428574 4289445428
2.8581309 0.18783325 0.45366001 4289445428
2.8666556 0.17834523 0.4549115 4289445428
2.9112227 0.16072346 0.46179458 4289445428
2.9295208 0.15148048 0.4646104 4289445428
2.9364271 0.13128817 0.46554902 4289445428
2.9447412 0.12187585 0.46680051 4289445428
2.9790816 0.10247052 0.47211927 4289445428
2.9836738 0.081778355 0.472745 4289445428
3.0339048 0.040776558 0.48056671 4289445428
