# .PCD v0.7 - Point Cloud Data file format
VERSION 0.7
FIELDS x y z intensity
SIZE 4 4 4 4
TYPE F F F F
COUNT 1 1 1 1
WIDTH 82
HEIGHT 1
VIEWPOINT 0 0 0 1 0 0 0
POINTS 82
DATA ascii
3.0844197 -0.24824083 0.04214194 100
3.0896299 -0.24149555 0.047372092 100
3.0948403 -0.23475027 0.052602246 100
3.1000504 -0.22800499 0.057832398 100
3.1052608 -0.22125973 0.063062549 100
3.110471 -0.21451445 0.068292707 100
3.1156812 -0.20776917 0.073522858 100
3.1208916 -0.20102389 0.078753009 100
3.1261017 -0.19427861 0.083983161 100
3.1313119 -0.18753333 0.089213312 100
3.1365223 -0.18078807 0.094443463 100
3.1417325 -0.17404279 0.099673614 100
3.1469429 -0.16729751 0.10490377 100
3.152153 -0.16055223 0.11013392 100
3.1573632 -0.15380695 0.11536408 100
3.1625736 -0.14706168 0.12059423 100
3.1677837 -0.1403164 0.12582439 100
3.1729941 -0.13357112 0.13105455 100
3.1782043 -0.12682582 0.13628471 100
3.1834145 -0.12008055 0.14151485 100
3.1886249 -0.11333527 0.14674501 100
3.193835 -0.10658999 0.15197517 100
3.1990454 -0.099844709 0.15720533 100
3.2042556 -0.09309943 0.16243549 100
3.2094657 -0.086354151 0.16766563 100
3.2146761 -0.079608865 0.17289579 100
3.2198863 -0.072863601 0.17812593 100
3.2571561 0.023513606 0.30840665 100
3.2514734 0.02235855 0.31466949 100
3.2457907 0.021203494 0.3209323 100
3.2401083 0.020048438 0.32719514 100
3.2344255 0.01889338 0.33345795 100
3.2287428 0.017738324 0.33972079 100
3.2230601 0.016583268 0.34598359 100
3.2173774 0.015428212 0.35224643 100
3.211695 0.014273155 0.35850924 100
3.2060122 0.013118099 0.36477208 100
3.2003295 0.011963043 0.37103489 100
3.1946468 0.010807987 0.3772977 100
3.1889641 0.0096529312 0.38356054 100
3.1832817 0.0084978743 0.38982335 100
3.177599 0.0073428177 0.39608619 100
3.1719162 0.0061877607 0.40234903 100
3.1662335 0.0050327037 0.40861183 100
3.1605508 0.003877647 0.41487467 100
3.1548684 0.00272259 0.42113751 100
3.1491857 0.0015675331 0.42740032 100
3.143503 0.00041247622 0.43366316 100
3.1378202 -0.00074258068 0.43992597 100
3.1321375 -0.0018976376 0.44618881 100
3.1264551 -0.0030526945 0.45245165 100
3.1207724 -0.0042077512 0.45871446 100
3.1150897 -0.0053628082 0.46497729 100
3.1094069 -0.0065178634 0.4712401 100
3.1037242 -0.0076729185 0.47750291 100
3.0980418 -0.0088279741 0.48376575 100
3.0923591 -0.0099830292 0.49002856 100
3.0866764 -0.011138084 0.49629137 100
3.0809937 -0.012293139 0.50255418 100
3.0753112 -0.013448195 0.50881702 100
3.0696285 -0.01460325 0.51507986 100
3.0639458 -0.015758304 0.52134264 100
3.0582631 -0.01691336 0.52760547 100
3.0525806 -0.018068416 0.53386831 100
3.0468979 -0.01922347 0.54013109 100
3.0412152 -0.020378526 0.54639393 100
3.0355325 -0.02153358 0.55265671 100
3.02985 -0.022688637 0.55891955 100
3.0241673 -0.023843691 0.56518239 100
3.0184846 -0.024998747 0.57144517 100
3.0128019 -0.026153801 0.57770801 100
3.0071192 -0.027308857 0.58397084 100
3.0014367 -0.028463911 0.59023362 100
2.995754 -0.029618967 0.59649646 100
2.9900713 -0.030774022 0.6027593 100
2.9843886 -0.031929076 0.60902208 100
2.9787061 -0.033084132 0.61528492 100
2.9730234 -0.034239188 0.62154776 100
2.9673407 -0.035394244 0.62781054 100
2.961658 -0.036549296 0.63407338 100
2.9559755 -0.037704352 0.64033622 100
2.9502928 -0.038859408 0.64659899 100
