# .PCD v0.7 - Point Cloud Data file format
VERSION 0.7
FIELDS x y z intensity
SIZE 4 4 4 4
TYPE F F F F
COUNT 1 1 1 1
WIDTH 130
HEIGHT 1
VIEWPOINT 0 0 0 1 0 0 0
POINTS 130
DATA ascii
3.0276954 -0.31902382 -0.012166129 100
3.0320096 -0.31352642 -0.0078556715 100
3.0363238 -0.30802903 -0.0035452128 100
3.040638 -0.30253163 0.00076524564 100
3.0449522 -0.29703423 0.0050757043 100
3.0492663 -0.29153684 0.0093861632 100
3.0535805 -0.28603944 0.013696623 100
3.0578947 -0.28054205 0.018007081 100
3.0622089 -0.27504465 0.022317538 100
3.0665231 -0.26954728 0.026627995 100
3.0708373 -0.26404989 0.030938454 100
3.0751514 -0.25855249 0.035248909 100
3.0794656 -0.2530551 0.039559368 100
3.0837798 -0.2475577 0.043869831 100
3.088094 -0.2420603 0.04818029 100
3.0924084 -0.23656291 0.052490752 100
3.0967226 -0.23106551 0.056801211 100
3.1010368 -0.22556812 0.061111674 100
3.105351 -0.22007072 0.065422133 100
3.1096652 -0.21457332 0.069732592 100
3.1139793 -0.20907593 0.074043058 100
3.1182935 -0.20357853 0.078353517 100
3.1226077 -0.19808114 0.082663976 100
3.1269219 -0.19258374 0.086974435 100
3.1312361 -0.18708634 0.091284901 100
3.1355503 -0.18158895 0.09559536 100
3.1398644 -0.17609157 0.099905811 100
3.1441786 -0.17059417 0.10421627 100
3.1484928 -0.16509679 0.10852672 100
3.152807 -0.15959941 0.11283718 100
3.1571212 -0.15410201 0.11714763 100
3.1614354 -0.14860463 0.12145808 100
3.1657495 -0.14310724 0.12576854 100
3.1700637 -0.13760985 0.130079 100
3.1743779 -0.13211246 0.13438945 100
3.1786921 -0.12661508 0.1386999 100
3.1830063 -0.12111769 0.14301036 100
3.1873205 -0.1156203 0.14732081 100
3.1916349 -0.11012291 0.15163127 100
3.1959491 -0.10462552 0.15594172 100
3.2002633 -0.099128135 0.16025217 100
3.2045774 -0.093630746 0.16456263 100
3.2088916 -0.088133365 0.16887309 100
3.2132058 -0.082635976 0.17318355 100
3.21752 -0.077138588 0.17749399 100
3.278079 0.058627263 0.24722901 100
3.2731678 0.064940535 0.2443019 100
3.2682569 0.071253806 0.24137479 100
3.2633457 0.077567078 0.23844768 100
3.2584345 0.08388035 0.23552057 100
3.2535236 0.090193622 0.23259346 100
3.2486124 0.096506894 0.22966637 100
3.2437012 0.10282016 0.22673926 100
3.2387903 0.10913343 0.22381215 100
3.2338791 0.1154467 0.22088504 100
3.2289679 0.12175997 0.21795793 100
3.224057 0.12807325 0.21503082 100
3.2191458 0.13438651 0.21210372 100
3.2142346 0.14069979 0.20917661 100
3.2093236 0.14701305 0.20624951 100
3.2044125 0.15332633 0.2033224 100
3.1995013 0.15963961 0.20039529 100
3.1945903 0.16595288 0.19746818 100
3.1896791 0.17226616 0.19454107 100
3.184768 0.17857943 0.19161396 100
3.179857 0.1848927 0.18868685 100
3.1749458 0.19120598 0.18575974 100
3.1700346 0.19751926 0.18283263 100
3.1651235 0.20383252 0.17990552 100
3.1602125 0.2101458 0.17697841 100
3.1553013 0.21645908 0.1740513 100
3.1503901 0.22277234 0.17112419 100
3.1454792 0.22908561 0.1681971 100
3.140568 0.23539887 0.16526999 100
3.1356571 0.24171214 0.16234288 100
3.1307459 0.2480254 0.15941578 100
3.1258347 0.25433865 0.15648867 100
3.1209238 0.26065192 0.15356156 100
3.1160126 0.26696518 0.15063447 100
3.1111014 0.27327845 0.14770736 100
3.1061904 0.27959171 0.14478025 100
3.1012793 0.28590497 0.14185315 100
3.0963681 0.29221827 0.13892604 100
3.0914571 0.29853153 0.13599893 100
3.0865459 0.3048448 0.13307184 100
3.0816348 0.31115806 0.13014473 100
3.0767238 0.31747133 0.12721762 100
3.0718126 0.32378459 0.12429053 100
3.0669014 0.33009785 0.12136342 100
3.0619905 0.33641112 0.11843631 100
3.0570793 0.34272438 0.11550921 100
3.0521681 0.34903765 0.1125821 100
3.0472572 0.35535091 0.109655 100
3.042346 0.36166418 0.1067279 100
3.0374351 0.36797744 0.10380079 100
3.0325239 0.3742907 0.10087369 100
3.0276127 0.38060397 0.097946584 100
3.0227017 0.38691723 0.095019475 100
3.0177906 0.3932305 0.092092372 100
3.2979827 0.028608322 0.26415536 100
3.2913096 0.027287565 0.27148521 100
3.2846367 0.025966808 0.27881509 100
3.2779636 0.024646051 0.28614494 100
3.2712908 0.023325292 0.29347482 100
3.2646177 0.022004535 0.30080467 100
3.2579448 0.020683778 0.30813453 100
3.2512717 0.019363021 0.31546441 100
3.2445989 0.018042265 0.32279426 100
3.2379258 0.016721508 0.33012411 100
3.2312529 0.015400751 0.33745399 100
3.2245798 0.014079994 0.34478384 100
3.217907 0.012759237 0.35211369 100
3.2112339 0.011438479 0.35944358 100
3.204561 0.010117721 0.36677343 100
3.1978879 0.008796962 0.37410331 100
3.191215 0.0074762045 0.38143319 100
3.1845419 0.0061554466 0.38876304 100
3.1778691 0.0048346883 0.39609292 100
3.171196 0.0035139306 0.40342277 100
3.1645229 0.0021931725 0.41075265 100
3.15785 0.00087241456 0.41808251 100
3.1511769 -0.00044834343 0.42541239 100
3.1445041 -0.0017691014 0.43274224 100
3.137831 -0.0030898594 0.44007212 100
3.1311581 -0.0044106175 0.44740197 100
3.124485 -0.0057313736 0.45473182 100
3.1178122 -0.0070521291 0.4620617 100
3.1111391 -0.0083728852 0.46939155 100
3.1044662 -0.0096936412 0.47672141 100
3.0977931 -0.011014397 0.48405126 100
