# .PCD v0.7 - Point Cloud Data file format
VERSION 0.7
FIELDS x y z rgb
SIZE 4 4 4 4
TYPE F F F U
COUNT 1 1 1 1
WIDTH 1109
HEIGHT 1
VIEWPOINT 0 0 0 1 0 0 0
POINTS 1109
DATA ascii
3.762687 -1.2926594 -0.20850646 4294901760
7.9871368 -2.7455149 1.9498757 4294901760
4.2168775 -1.450341 -0.077837728 4294901760
8.1800137 -2.8150079 2.3179834 4294901760
2.3463356 -0.8106575 -0.66516501 4294901760
4.7400007 -1.6385934 0.087541275 4294901760
2.5010047 -0.86507297 -0.61096704 4294901760
5.4074636 -1.8714452 0.29988506 4294901760
2.6957324 -0.93295407 -0.55449098 4294901760
6.3522511 -2.1996641 0.5881269 4294901760
2.9061675 -1.0069188 -0.48713696 4294901760
6.8777666 -2.3843291 0.89378983 4294901760
3.1507905 -1.092907 -0.40948102 4294901760
7.3695393 -2.5576949 1.2355195 4294901760
3.444519 -1.1954653 -0.31898999 4294901760
7.5390048 -2.6179845 1.5512772 4294901760
3.771358 -1.3103744 -0.20923917 4294901760
7.9609394 -2.7676194 1.9458266 4294901760
4.2136779 -1.465709 -0.077872641 4294901760
8.1756115 -2.845449 2.3195364 4294901760
2.3507864 -0.8213917 -0.66723549 4294901760
4.7361398 -1.6557891 0.087576173 4294901760
2.5053277 -0.87637162 -0.61276668 4294901760
5.4084387 -1.8929486 0.30030376 4294901760
2.6813412 -0.93846691 -0.55220127 4294901760
6.3670998 -2.2297263 0.59021866 4294901760
2.9026349 -1.0170571 -0.48713696 4294901760
6.8825154 -2.4129198 0.89549601 4294901760
3.1469564 -1.1038986 -0.40948102 4294901760
7.3456545 -2.5781703 1.2330166 4294901760
3.4459646 -1.2094611 -0.31951293 4294901760
7.5409346 -2.6481879 1.5535669 4294901760
3.7761831 -1.3268414 -0.20976254 4294901760
7.9567451 -2.7973301 1.9471762 4294901760
4.2066493 -1.4797447 -0.077837728 4294901760
8.1601629 -2.8720458 2.3179834 4294901760
2.3387976 -0.82637453 -0.66464734 4294901760
4.7359867 -1.6743106 0.087680891 4294901760
2.5096021 -0.88771093 -0.61456627 4294901760
5.4112124 -1.915148 0.30082709 4294901760
2.6780488 -0.94782084 -0.55220127 4294901760
6.3480086 -2.2479479 0.58917278 4294901760
2.8972051 -1.0265232 -0.48682413 4294901760
6.8759217 -2.437593 0.89573973 4294901760
3.1468258 -1.116204 -0.4099685 4294901760
7.3384719 -2.6044564 1.2333294 4294901760
3.436089 -1.2194833 -0.31898999 4294901760
7.5371957 -2.6764653 1.5547118 4294901760
3.7847023 -1.3446952 -0.21049525 4294901760
7.9524403 -2.8270457 1.9485261 4294901760
4.1995745 -1.4937495 -0.077802829 4294901760
8.1355267 -2.8953309 2.3138423 4294901760
2.3286216 -0.83193362 -0.66257679 4294901760
4.7225819 -1.6881399 0.087541275 4294901760
2.5101578 -0.89777821 -0.61546606 4294901760
5.4082551 -1.9353708 0.30103645 4294901760
2.6821179 -0.95980912 -0.55372775 4294901760
6.3288684 -2.2660627 0.5881269 4294901760
2.9029026 -1.0399612 -0.48838848 4294901760
6.8636332 -2.4602396 0.89525223 4294901760
3.14291 -1.1271816 -0.4099685 4294901760
7.327477 -2.6293893 1.2330166 4294901760
3.4299359 -1.2307971 -0.31881571 4294901760
7.5000896 -2.6928074 1.5489874 4294901760
3.776226 -1.3565477 -0.21028589 4294901760
7.951694 -2.8580835 1.9507756 4294901760
4.1962166 -1.5090764 -0.077837728 4294901760
8.1235533 -2.9230573 2.3133247 4294901760
2.3329713 -0.84268212 -0.66464734 4294901760
4.7223024 -1.7066534 0.087645985 4294901760
2.4923477 -0.90123343 -0.61186683 4294901760
5.4164915 -1.9596732 0.3018738 4294901760
2.6861358 -0.97183728 -0.55525422 4294901760
6.343401 -2.2962792 0.59021866 4294901760
2.8881106 -1.0460516 -0.48651123 4294901760
6.8400731 -2.4787729 0.89330238 4294901760
3.15202 -1.1428823 -0.41167468 4294901760
7.3275385 -2.6583188 1.2345809 4294901760
3.4293649 -1.2441212 -0.31916434 4294901760
7.4887991 -2.7183013 1.5486058 4294901760
3.7677133 -1.3683573 -0.21007656 4294901760
7.9361734 -2.8838258 1.9494258 4294901760
4.2003198 -1.5271311 -0.078012258 4294901760
8.1114845 -2.9507358 2.3128071 4294901760
2.3372743 -0.8534711 -0.66671789 4294901760
4.7200727 -1.7244993 0.08771579 4294901760
2.4928474 -0.91126609 -0.61276668 4294901760
5.4058666 -1.9771965 0.3016645 4294901760
2.6827271 -0.98120779 -0.55525422 4294901760
6.3540568 -2.3252547 0.5919618 4294901760
2.8844419 -1.0561265 -0.48651123 4294901760
6.8295155 -2.5019512 0.89305866 4294901760
3.1386921 -1.150462 -0.410456 4294901760
7.3126502 -2.6818402 1.2336423 4294901760
3.4343538 -1.2595143 -0.32003587 4294901760
7.4718933 -2.7417204 1.5470794 4294901760
3.7629139 -1.381501 -0.21007656 4294901760
7.9224 -2.910167 1.9485261 4294901760
4.2043481 -1.5452328 -0.07818678 4294901760
8.1120138 -2.9830325 2.3159127 4294901760
2.3306561 -0.86028659 -0.66568261 4294901760
4.7252793 -1.7451217 0.087925225 4294901760
2.496963 -0.92266393 -0.61456627 4294901760
5.398932 -1.9960543 0.3016645 4294901760
2.6792858 -0.99056619 -0.55525422 4294901760
6.3608503 -2.3529499 0.59335625 4294901760
2.8937056 -1.0709884 -0.48870131 4294901760
6.8281865 -2.5285327 0.89403361 4294901760
3.1346571 -1.1614112 -0.410456 4294901760
7.2902794 -2.7025437 1.2314522 4294901760
3.4392772 -1.2749575 -0.32090744 4294901760
7.4733214 -2.7718823 1.5493692 4294901760
3.7636857 -1.3967118 -0.21039055 4294901760
7.903059 -2.9344118 1.9462765 4294901760
4.1914306 -1.5571139 -0.078047164 4294901760
8.0961199 -3.0093117 2.3143599 4294901760
2.3203993 -0.86571568 -0.66361207 4294901760
4.7266526 -1.7644026 0.088064842 4294901760
2.4973783 -0.93273795 -0.61546606 4294901760
5.4031568 -2.0190828 0.30229253 4294901760
2.6647773 -0.99578935 -0.55296451 4294901760
6.3339367 -2.3681619 0.59161317 4294901760
2.8862493 -1.0796986 -0.48807558 4294901760
6.8137407 -2.5502646 0.89330238 4294901760
3.1361609 -1.1744344 -0.4111872 4294901760
7.2826514 -2.728668 1.2317652 4294901760
3.4217458 -1.2820617 -0.31968728 4294901760
7.4599228 -2.7965732 1.5486058 4294901760
3.7643976 -1.4119455 -0.21070457 4294901760
7.9110141 -2.968828 1.9507756 4294901760
4.1859698 -1.5717353 -0.078047164 4294901760
8.0747156 -3.0334775 2.311254 4294901760
2.3209782 -0.87517339 -0.66464734 4294901760
4.7167234 -1.7794795 0.087995037 4294901760
2.4977536 -0.94282627 -0.61636591 4294901760
5.4035497 -2.0407534 0.30271122 4294901760
2.6759782 -1.0106342 -0.5560174 4294901760
6.3517251 -2.4001167 0.59405357 4294901760
2.8917015 -1.0932597 -0.48963994 4294901760
6.8047976 -2.5740333 0.89330238 4294901760
3.141325 -1.1888878 -0.41240588 4294901760
7.2767768 -2.7554717 1.2323909 4294901760
3.4191129 -1.2947035 -0.31986156 4294901760
7.4427729 -2.8198144 1.5470794 4294901760
3.7631812 -1.4264929 -0.21091393 4294901760
7.8969574 -2.9950421 1.9498757 4294901760
4.2010241 -1.5941415 -0.078431122 4294901760
8.0622711 -3.0609591 2.3107367 4294901760
2.3215196 -0.88464546 -0.66568261 4294901760
4.7123513 -1.7966452 0.088029936 4294901760
2.4798813 -0.94598281 -0.61276668 4294901760
5.4075894 -2.0638762 0.30333924 4294901760
2.6687658 -1.0185689 -0.55525422 4294901760
6.3470302 -2.4236953 0.59440213 4294901760
2.8731055 -1.0977068 -0.48713696 4294901760
6.7957706 -2.5977709 0.89330238 4294901760
3.1371558 -1.1998458 -0.41240588 4294901760
7.268959 -2.7815619 1.2327038 4294901760
3.4164336 -1.3073428 -0.32003587 4294901760
7.4237165 -2.8422673 1.5451714 4294901760
3.7544487 -1.4381913 -0.21070457 4294901760
7.8809958 -3.0204971 1.9485261 4294901760
4.1935658 -1.60808 -0.078396209 4294901760
8.0515375 -3.0890832 2.3107367 4294901760
2.3292344 -0.89690894 -0.66878843 4294901760
4.7191133 -1.8181161 0.08827427 4294901760
2.4765639 -0.95463341 -0.61276668 4294901760
5.398488 -2.0820208 0.30323455 4294901760
2.6761847 -1.0321171 -0.55754393 4294901760
6.3682723 -2.4573116 0.59719115 4294901760
2.8803132 -1.1119978 -0.48901421 4294901760
6.7644405 -2.6128933 0.89037746 4294901760
3.1273937 -1.2086426 -0.41167468 4294901760
7.2665753 -2.809768 1.2339553 4294901760
3.4229994 -1.3235717 -0.32108176 4294901760
7.4174118 -2.8695803 1.5459346 4294901760
3.7512686 -1.4520091 -0.21080926 4294901760
7.8613176 -3.0444701 1.9462765 4294901760
4.180469 -1.6198186 -0.078256592 4294901760
8.0425072 -3.1178679 2.311254 4294901760
2.3224888 -0.90363318 -0.66775316 4294901760
4.716465 -1.8360285 0.088344082 4294901760
2.48048 -0.96610141 -0.61456627 4294901760
5.3949099 -2.1023026 0.30344391 4294901760
2.6652484 -1.0386009 -0.5560174 4294901760
6.3559432 -2.4780786 0.59684253 4294901760
2.8745737 -1.1213274 -0.48870131 4294901760
6.7700725 -2.6422639 0.89232743 4294901760
3.1287029 -1.221718 -0.41240588 4294901760
7.2383232 -2.8279274 1.2308265 4294901760
3.4294927 -1.3398622 -0.32212761 4294901760
7.4055219 -2.8947399 1.545553 4294901760
3.755477 -1.4687318 -0.2113326 4294901760
7.8524575 -3.0726023 1.9467264 4294901760
4.1859617 -1.6387751 -0.078466021 4294901760
8.0333729 -3.1466267 2.3117716 4294901760
2.3157244 -0.910321 -0.66671789 4294901760
4.7137494 -1.8539448 0.088413894 4294901760
2.4934132 -0.98117626 -0.61861545 4294901760
5.3916254 -2.1216438 0.30365324 4294901760
2.657953 -1.0464597 -0.55525422 4294901760
6.3732076 -2.510473 0.59928286 4294901760
2.9000466 -1.1429435 -0.49370724 4294901760
6.7663484 -2.6680644 0.89305866 4294901760
3.1262662 -1.2333602 -0.41264963 4294901760
7.2215562 -2.8490152 1.229575 4294901760
3.4081156 -1.3452417 -0.32055882 4294901760
7.4099798 -2.9263411 1.5486058 4294901760
3.7503273 -1.4818318 -0.2113326 4294901760
7.8380604 -3.0985613 1.9458266 4294901760
4.1805048 -1.6526473 -0.078466021 4294901760
8.0067263 -3.1668544 2.3071132 4294901760
2.3125327 -0.91839886 -0.66671789 4294901760
4.7112923 -1.871042 0.088483699 4294901760
2.4883349 -0.9887197 -0.61816549 4294901760
5.3990345 -2.146354 0.30449063 4294901760
2.661581 -1.0586337 -0.5567807 4294901760
6.3940239 -2.5444911 0.60207188 4294901760
2.8632035 -1.139407 -0.48807558 4294901760
6.7519307 -2.6882844 0.89232743 4294901760
3.1295357 -1.246659 -0.41362458 4294901760
7.2152367 -2.8756683 1.2302008 4294901760
3.4089513 -1.3593441 -0.32108176 4294901760
7.3838229 -2.9443531 1.5451714 4294901760
3.7583785 -1.4994409 -0.21206531 4294901760
7.8313608 -3.1259809 1.9467264 4294901760
4.1821384 -1.6701967 -0.078605637 4294901760
7.997417 -3.1955006 2.3076308 4294901760
2.3130605 -0.92750055 -0.66775316 4294901760
4.7010207 -1.8859868 0.088413894 4294901760
2.4776344 -0.99449605 -0.61636591 4294901760
5.3952169 -2.1666758 0.30469999 4294901760
2.6616998 -1.0689173 -0.55754393 4294901760
6.452106 -2.592422 0.60834706 4294901760
2.87937 -1.1574993 -0.49151716 4294901760
6.7259302 -2.7051704 0.89013374 4294901760
3.1288481 -1.2590578 -0.41411206 4294901760
7.2014899 -2.8993616 1.229575 4294901760
3.4044247 -1.3706411 -0.32108176 4294901760
7.3698583 -2.968642 1.5444082 4294901760
3.7420068 -1.5080717 -0.21143727 4294901760
7.8276315 -3.1562133 1.9485261 4294901760
4.1855555 -1.6885254 -0.078780167 4294901760
7.9897966 -3.2248435 2.308666 4294901760
2.3133898 -0.93701935 -0.66878843 4294901760
4.7129421 -1.9098957 0.088762946 4294901760
2.46873 -1.0009419 -0.61501622 4294901760
5.3913217 -2.1869969 0.30490932 4294901760
2.6652293 -1.0811539 -0.55907035 4294901760
6.4836321 -2.6314118 0.6121819 4294901760
2.8698213 -1.1653136 -0.49057853 4294901760
6.7127676 -2.7271371 0.88964629 4294901760
3.1152391 -1.2662343 -0.41289338 4294901760
7.2004747 -2.9282022 1.2311394 4294901760
3.4106932 -1.3870195 -0.32212761 4294901760
7.3612695 -2.9950898 1.5447898 4294901760
3.7367198 -1.5211245 -0.21143727 4294901760
7.8075423 -3.1798425 1.9462765 4294901760
4.181488 -1.7038802 -0.078815073 4294901760
7.982069 -3.2541723 2.3097014 4294901760
2.3136811 -0.94655192 -0.66982371 4294901760
4.7062464 -1.9263352 0.088762946 4294901760
2.4760413 -1.0139843 -0.6177156 4294901760
5.3873515 -2.2073174 0.30511865 4294901760
2.6541724 -1.0874733 -0.55754393 4294901760
6.5831742 -2.6986144 0.62246627 4294901760
2.867564 -1.1760736 -0.49089143 4294901760
6.7123904 -2.7543206 0.89086497 4294901760
3.1126363 -1.2778547 -0.41313711 4294901760
7.1774187 -2.9480653 1.2289493 4294901760
3.4168887 -1.4034587 -0.32317349 4294901760
7.3580327 -3.0237517 1.5463161 4294901760
3.7406237 -1.5379564 -0.21196064 4294901760
7.789186 -3.2041106 1.9444768 4294901760
4.1699672 -1.7161826 -0.078710355 4294901760
7.9706612 -3.2820151 2.3097014 4294901760
2.3032212 -0.95167148 -0.66775316 4294901760
4.7087331 -1.946571 0.088937461 4294901760
2.4814906 -1.0263451 -0.61996508 4294901760
5.3943777 -2.2322185 0.30595604 4294901760
2.6539886 -1.0982327 -0.55830717 4294901760
6.5221705 -2.7002378 0.6175856 4294901760
2.8707409 -1.1890999 -0.49214289 4294901760
6.7009015 -2.7769744 0.89062124 4294901760
3.1209929 -1.294034 -0.41484326 4294901760
6.8641982 -2.8474557 1.177013 4294901760
3.3972464 -1.4092699 -0.32177898 4294901760
7.3510609 -3.0509229 1.5470794 4294901760
3.7426105 -1.5540677 -0.21237932 4294901760
7.7815547 -3.2327764 1.9453768 4294901760
4.1713371 -1.7337979 -0.078849971 4294901760
7.9395347 -3.3016582 2.3040073 4294901760
2.2963195 -0.95821756 -0.66671789 4294901760
4.7000647 -1.9622253 0.088902563 4294901760
2.4724987 -1.0327477 -0.61861545 4294901760
5.3943172 -2.2531738 0.3063747 4294901760
2.6610074 -1.1120323 -0.56059688 4294901760
6.5163813 -2.724525 0.61793417 4294901760
2.8556385 -1.1945394 -0.49026567 4294901760
6.6948295 -2.8018808 0.89110869 4294901760
3.118288 -1.3056872 -0.41508701 4294901760
6.8401413 -2.8640988 1.1745101 4294901760
3.3959816 -1.4226595 -0.32212761 4294901760
6.773633 -2.83903 1.4276329 4294901760
3.7408466 -1.5686671 -0.21258868 4294901760
7.7756124 -3.2621808 1.9467264 4294901760
4.1766286 -1.7522628 -0.0790594 4294901760
7.9249802 -3.326473 2.3029721 4294901760
2.3036423 -0.9707284 -0.66982371 4294901760
4.6972175 -1.9793534 0.088972367 4294901760
2.4672644 -1.040184 -0.61816549 4294901760
5.3974609 -2.2766469 0.30700275 4294901760
2.6534917 -1.1197875 -0.55983365 4294901760
6.5527186 -2.7666292 0.62229198 4294901760
2.8480222 -1.2024659 -0.48963994 4294901760
6.6818438 -2.8225212 0.89062124 4294901760
3.1102841 -1.3144753 -0.41459954 4294901760
7.1612368 -3.027971 1.2314522 4294901760
3.3964996 -1.4368339 -0.32265055 4294901760
3.7356241 -1.5810635 -0.21258868 4294901760
4.1888995 -1.774632 -0.079408452 4294901760
2.3039658 -0.97987425 -0.67085898 4294901760
4.6976395 -1.9988697 0.089111991 4294901760
2.4672046 -1.0503167 -0.61906528 4294901760
5.3862066 -2.2929685 0.30679342 4294901760
2.6569889 -1.1316578 -0.56136012 4294901760
6.5416756 -2.7875626 0.6221177 4294901760
2.8746984 -1.22557 -0.4949587 4294901760
6.6719508 -2.8458281 0.89062124 4294901760
3.1075025 -1.3261031 -0.41484326 4294901760
7.1420717 -3.0478251 1.229888 4294901760
3.4045429 -1.4535654 -0.32387072 4294901760
7.295784 -3.1164312 1.5421184 4294901760
3.7245731 -1.5917393 -0.21227466 4294901760
4.1829915 -1.7885132 -0.079408452 4294901760
2.3040817 -0.98943532 -0.67189431 4294901760
4.7056847 -2.0207489 0.089391224 4294901760
2.4637079 -1.0584924 -0.61906528 4294901760
5.3891788 -2.3164883 0.30742142 4294901760
2.6422012 -1.1362718 -0.55907035 4294901760
6.557528 -2.8214042 0.62455803 4294901760
2.8506587 -1.226508 -0.49151716 4294901760
6.6934738 -2.8812802 0.89476484 4294901760
3.1067343 -1.3379711 -0.41533077 4294901760
8.8929205 -3.8317368 1.5336838 4294901760
3.4067669 -1.4685955 -0.32456797 4294901760
7.3088465 -3.1507115 1.5470794 4294901760
3.7321117 -1.6096182 -0.21300736 4294901760
7.715354 -3.3291433 1.9399779 4294901760
4.1730509 -1.8015184 -0.07933864 4294901760
7.8371015 -3.3849223 2.2874427 4294901760
2.2933507 -0.99479842 -0.66982371 4294901760
4.70156 -2.0403948 0.089461036 4294901760
2.4703507 -1.0726013 -0.62176472 4294901760
5.391645 -2.3409977 0.30804947 4294901760
2.6452215 -1.1490773 -0.56059688 4294901760
6.5325241 -2.8390667 0.62316358 4294901760
2.8567972 -1.2421708 -0.49339435 4294901760
6.691462 -2.9109194 0.89598346 4294901760
3.0997539 -1.3490981 -0.41508701 4294901760
9.7681475 -4.2513661 1.6873024 4294901760
3.3830941 -1.4731178 -0.32282487 4294901760
10.090101 -4.395679 2.1393507 4294901760
3.7368894 -1.6287247 -0.2136354 4294901760
7.7150173 -3.3641958 1.9431273 4294901760
4.1627541 -1.8152027 -0.079268835 4294901760
7.999939 -3.4901004 2.3386889 4294901760
2.2827857 -0.9996978 -0.66775316 4294901760
4.694768 -2.0559745 0.089461036 4294901760
2.4667802 -1.0807875 -0.62176472 4294901760
5.3944154 -2.3646147 0.30867749 4294901760
2.6411943 -1.1583039 -0.56059688 4294901760
6.4295249 -2.8210256 0.61427367 4294901760
2.8598981 -1.2548121 -0.49464583 4294901760
6.6999493 -2.941072 0.89842087 4294901760
3.1098032 -1.3657556 -0.41703692 4294901760
9.77495 -4.2949729 1.6910567 4294901760
3.3815792 -1.4865217 -0.32317349 4294901760
12.278916 -5.397737 2.6072142 4294901760
3.7332959 -1.6419116 -0.21374007 4294901760
4.1710339 -1.8361678 -0.079548068 4294901760
8.0849466 -3.5608308 2.3671591 4294901760
2.2935944 -1.0135089 -0.67189431 4294901760
4.6875629 -2.0723498 0.089461036 4294901760
2.4540815 -1.0854501 -0.61951524 4294901760
5.393434 -2.386663 0.30909619 4294901760
2.6517015 -1.1734116 -0.56364983 4294901760
6.383698 -2.8262 0.61078745 4294901760
2.8428576 -1.2591875 -0.49245578 4294901760
6.6860127 -2.9628329 0.89793342 4294901760
3.1086464 -1.3782115 -0.4175244 4294901760
9.7887897 -4.3418832 1.6960627 4294901760
3.3912013 -1.5041901 -0.32456797 4294901760
12.270767 -5.4453435 2.609504 4294901760
3.7184148 -1.6508813 -0.21321672 4294901760
12.153229 -5.398263 3.070132 4294901760
4.1700811 -1.8531524 -0.079652779 4294901760
12.012495 -5.3407731 3.5225275 4294901760
2.293571 -1.0230827 -0.67292953 4294901760
4.6949091 -2.0952194 0.089740276 4294901760
2.455616 -1.0963933 -0.62086493 4294901760
5.3887177 -2.4071047 0.30930555 4294901760
2.6440041 -1.1810591 -0.56288654 4294901760
6.3828893 -2.8525307 0.61165899 4294901760
2.8348384 -1.2674907 -0.49182999 4294901760
6.6937504 -2.9942594 0.90037078 4294901760
3.0965688 -1.3858109 -0.41654944 4294901760
6.6942039 -2.9972665 1.1616825 4294901760
3.3859301 -1.5160183 -0.32456797 4294901760
12.266017 -5.4945636 2.6125569 4294901760
3.72721 -1.6703852 -0.21405408 4294901760
12.123642 -5.4358687 3.0674326 4294901760
4.1654119 -1.868516 -0.079687685 4294901760
11.997304 -5.384254 3.5235624 4294901760
2.2935088 -1.0326689 -0.6739648 4294901760
4.6948595 -2.1148798 0.089879893 4294901760
2.4535503 -1.105759 -0.62131482 4294901760
5.3843479 -2.4266024 0.30951488 4294901760
2.636286 -1.1886673 -0.5621233 4294901760
6.3983192 -2.8862634 0.61409938 4294901760
2.8610053 -1.2911923 -0.49714881 4294901760
6.7067776 -3.0282259 0.90353942 4294901760
3.0901473 -1.3952549 -0.41630572 4294901760
6.6644254 -3.0105035 1.1582409 4294901760
3.3951423 -1.5343925 -0.32596248 4294901760
6.6081719 -2.9878705 1.4096969 4294901760
3.7158973 -1.6809161 -0.21374007 4294901760
12.112652 -5.4792557 3.0692322 4294901760
4.1537275 -1.8798455 -0.079582974 4294901760
11.988183 -5.4279928 3.5261507 4294901760
2.2795184 -1.0354749 -0.67085898 4294901760
4.6951032 -2.1337466 0.090019517 4294901760
2.4622879 -1.1195352 -0.62446409 4294901760
5.394453 -2.4527106 0.3105616 4294901760
2.6287556 -1.1957773 -0.56136012 4294901760
6.3778324 -2.9025135 0.6130535 4294901760
2.8405278 -1.2933058 -0.49433297 4294901760
6.7075377 -3.0553873 0.90500182 4294901760
3.0873098 -1.4063175 -0.41654944 4294901760
3.379158 -1.5406834 -0.3249166 4294901760
6.5982275 -3.0097673 1.4096969 4294901760
3.7284729 -1.7015212 -0.21478678 4294901760
6.5418339 -2.9854231 1.6601387 4294901760
4.1529279 -1.8961006 -0.079687685 4294901760
11.964847 -5.4653091 3.5245979 4294901760
2.276072 -1.0430284 -0.67085898 4294901760
4.6880016 -2.1493044 0.090019517 4294901760
2.4585619 -1.1276944 -0.62446409 4294901760
5.4003801 -2.4781899 0.31139898 4294901760
2.6319129 -1.2077632 -0.56288654 4294901760
6.3536868 -2.916997 0.61165899 4294901760
2.8344283 -1.3018937 -0.4940201 4294901760
6.7190137 -3.0875602 0.90792668 4294901760
3.0914001 -1.4212316 -0.41776815 4294901760
9.8759365 -4.5424232 1.721718 4294901760
3.3737595 -1.5524694 -0.3249166 4294901760
3.7191815 -1.7122055 -0.21457745 4294901760
6.5207529 -3.0033488 1.6574394 4294901760
4.1571808 -1.9156069 -0.079897113 4294901760
11.889555 -5.4811602 3.5080335 4294901760
2.2827535 -1.056231 -0.6739648 4294901760
4.6877294 -2.1690145 0.090159133 4294901760
2.444 -1.1313577 -0.62176472 4294901760
5.4025707 -2.5020618 0.31202701 4294901760
2.6310315 -1.2190522 -0.56364983 4294901760
6.3610287 -2.9486437 0.61340207 4294901760
2.8278453 -1.3114424 -0.49370724 4294901760
6.7316065 -3.1218519 0.91109526 4294901760
3.0936232 -1.4353558 -0.4187431 4294901760
9.8886881 -4.5901761 1.7267238 4294901760
3.3737409 -1.5667542 -0.32543954 4294901760
12.160607 -5.6499262 2.606451 4294901760
3.7146919 -1.7266673 -0.21468212 4294901760
4.1595349 -1.9343226 -0.080071643 4294901760
11.935157 -5.5527797 3.5271859 4294901760
2.2790527 -1.0641929 -0.6739648 4294901760
4.694242 -2.1929522 0.090438366 4294901760
2.4398367 -1.1403078 -0.62176472 4294901760
5.3865666 -2.5175223 0.31160831 4294901760
2.6303172 -1.2298921 -0.56441307 4294901760
6.3687444 -2.9792724 0.61514527 4294901760
2.8268287 -1.3229802 -0.49433297 4294901760
7.7089009 -3.6094725 1.0451516 4294901760
3.0847464 -1.4450008 -0.41825563 4294901760
9.9048042 -4.6397495 1.7323555 4294901760
3.3718598 -1.5802121 -0.32578817 4294901760
12.155031 -5.6990075 2.609504 4294901760
3.7122588 -1.7413199 -0.21489146 4294901760
12.024384 -5.6428733 3.0665329 4294901760
4.149137 -1.9471313 -0.080001831 4294901760
11.910456 -5.5919447 3.5256331 4294901760
2.2858098 -1.0770825 -0.67707068 4294901760
4.6905622 -2.2102115 0.090508185 4294901760
2.4413302 -1.1508852 -0.62311447 4294901760
5.3813586 -2.5380137 0.31181765 4294901760
2.622457 -1.2373905 -0.56364983 4294901760
6.3835301 -3.0133924 0.6175856 4294901760
2.8331439 -1.3374065 -0.49621019 4294901760
7.7274036 -3.6494274 1.0492952 4294901760
3.0835271 -1.4569182 -0.4187431 4294901760
9.8885489 -4.6742954 1.7323555 4294901760
3.3861358 -1.6013422 -0.32770559 4294901760
12.153814 -5.7476773 2.6133201 4294901760
3.7172959 -1.7587454 -0.21551949 4294901760
12.002082 -5.6810489 3.0656328 4294901760
4.1441226 -1.9624584 -0.080036737 4294901760
11.899592 -5.6376224 3.5282214 4294901760
2.2682664 -1.0780226 -0.67292953 4294901760
4.68643 -2.2282882 0.09057799 4294901760
2.4408176 -1.1610743 -0.62401426 4294901760
5.3941083 -2.5670817 0.31307372 4294901760
2.625212 -1.249913 -0.56517625 4294901760
6.3537145 -3.0251231 0.61566812 4294901760
2.8320251 -1.3489867 -0.49683592 4294901760
7.7271619 -3.6823566 1.0510013 4294901760
3.0837984 -1.4702357 -0.4194743 4294901760
9.911397 -4.7274942 1.7392386 4294901760
3.3715343 -1.6088619 -0.32683402 4294901760
12.139752 -5.795567 2.6148465 4294901760
3.7090225 -1.7714974 -0.21541482 4294901760
11.996246 -5.7296276 3.0692322 4294901760
4.1408553 -1.9786363 -0.080106542 4294901760
11.869385 -5.6741257 3.5251155 4294901760
2.2677836 -1.0880003 -0.6739648 4294901760
4.6782317 -2.24545 0.09057799 4294901760
2.445329 -1.1742303 -0.62626374 4294901760
5.3954649 -2.5920241 0.31370175 4294901760
2.6206133 -1.2595265 -0.56517625 4294901760
6.3767028 -3.0647891 0.61898005 4294901760
2.8217208 -1.3567896 -0.49589729 4294901760
7.7315021 -3.7192583 1.0534387 4294901760
3.0766003 -1.4806677 -0.41923055 4294901760
9.9367189 -4.7843556 1.7467474 4294901760
3.3638201 -1.6203436 -0.32665971 4294901760
12.086595 -5.8246813 2.6079774 4294901760
3.7132998 -1.7902844 -0.21604285 4294901760
11.987453 -5.7794824 3.0723815 4294901760
4.144382 -1.9990126 -0.080315977 4294901760
11.841548 -5.7142329 3.5230448 4294901760
2.2707355 -1.0996729 -0.6760354 4294901760
4.6789684 -2.2669411 0.090752512 4294901760
2.4304872 -1.178085 -0.6235643 4294901760
5.4003053 -2.6187539 0.31453913 4294901760
2.6232665 -1.2720928 -0.56670272 4294901760
6.3725972 -3.0916185 0.61967731 4294901760
2.829169 -1.3731605 -0.49808741 4294901760
7.7321043 -3.7545078 1.0553887 4294901760
3.0818663 -1.4971386 -0.42069301 4294901760
9.9297771 -4.8259249 1.7486247 4294901760
3.3653114 -1.6355593 -0.32735696 4294901760
12.080314 -5.873704 2.6110306 4294901760
3.6998439 -1.7997406 -0.21562417 4294901760
11.962686 -5.8216743 3.0714817 4294901760
4.1442194 -2.0176907 -0.080455594 4294901760
11.827473 -5.7609797 3.5251155 4294901760
2.2703547 -1.1092887 -0.67707068 4294901760
4.6764164 -2.2858946 0.09085723 4294901760
2.4263601 -1.1865617 -0.6235643 4294901760
5.3803663 -2.6323221 0.31391108 4294901760
2.6223373 -1.2829677 -0.56746602 4294901760
6.3689256 -3.1173482 0.62037456 4294901760
2.8172619 -1.3795527 -0.49683592 4294901760
7.7403426 -3.7919543 1.0583134 4294901760
3.0730565 -1.5061399 -0.42020553 4294901760
9.9270592 -4.8675137 1.7511276 4294901760
3.3667374 -1.6508051 -0.32805422 4294901760
12.063262 -5.9175653 2.6117938 4294901760
3.6971245 -1.8144041 -0.2158335 4294901760
11.949288 -5.8668318 3.0732813 4294901760
4.1407409 -2.0339077 -0.080525406 4294901760
11.819427 -5.8081942 3.528739 4294901760
2.2664688 -1.1172069 -0.67707068 4294901760
4.6791701 -2.3075113 0.091066658 4294901760
2.4222033 -1.1950241 -0.6235643 4294901760
5.3890553 -2.6599269 0.3149578 4294901760
2.610801 -1.2886376 -0.56593949 4294901760
6.390161 -3.1554391 0.62351215 4294901760
2.8265979 -1.3963778 -0.49933887 4294901760
7.7519751 -3.8312643 1.0617259 4294901760
3.0624418 -1.5142181 -0.4194743 4294901760
9.9489622 -4.9214048 1.7580107 4294901760
3.3645263 -1.6643139 -0.32840282 4294901760
19.042124 -9.4236135 4.1298699 4294901760
3.701508 -1.8326157 -0.21646154 4294901760
11.904289 -5.8963976 3.0669827 4294901760
4.1371994 -2.0501246 -0.08059521 4294901760
11.79562 -5.8477001 3.5277038 4294901760
2.2590954 -1.1233912 -0.6760354 4294901760
4.6871996 -2.3318465 0.091380797 4294901760
2.4319742 -1.2104183 -0.62716353 4294901760
5.3797379 -2.6787219 0.3149578 4294901760
2.6062868 -1.2977431 -0.56593949 4294901760
6.3666239 -3.1715074 0.62229198 4294901760
2.8217063 -1.4062359 -0.49933887 4294901760
7.7652011 -3.8715866 1.0653819 4294901760
3.069572 -1.5311011 -0.42118049 4294901760
9.9635372 -4.9719791 1.7636423 4294901760
3.3604789 -1.6769378 -0.32857716 4294901760
12.063814 -6.0226841 2.6209526 4294901760
3.7004485 -1.8482022 -0.21677555 4294901760
11.894094 -5.9431415 3.0696821 4294901760
4.1335955 -2.0663421 -0.080665022 4294901760
11.775135 -5.8888388 3.5277038 4294901760
2.2551606 -1.1312701 -0.6760354 4294901760
4.6665206 -2.3419149 0.091136463 4294901760
2.4416666 -1.2258953 -0.63076276 4294901760
5.3846326 -2.7046564 0.31579518 4294901760
2.6052496 -1.3085954 -0.56670272 4294901760
6.3715367 -3.2017629 0.62386078 4294901760
2.8150153 -1.4151896 -0.499026 4294901760
7.7676001 -3.9066956 1.0675756 4294901760
3.0642087 -1.5418066 -0.42118049 4294901760
9.9778805 -5.0227156 1.769274 4294901760
3.3528254 -1.687762 -0.32840282 4294901760
11.983099 -6.0347342 2.6079774 4294901760
3.6993258 -1.863804 -0.21708956 4294901760
11.883717 -5.9898863 3.0723815 4294901760
4.1406412 -2.0879614 -0.080944255 4294901760
11.742434 -5.9238143 3.52408 4294901760
2.2615399 -1.1443685 -0.67914116 4294901760
4.6690216 -2.3636088 0.091345899 4294901760
2.4217262 -1.2264867 -0.62671363 4294901760
5.3858485 -2.7288518 0.31642324 4294901760
2.6076713 -1.3212308 -0.5682292 4294901760
6.3798704 -3.2338932 0.6257782 4294901760
2.8030112 -1.4214336 -0.49777454 4294901760
7.7680779 -3.9409709 1.0695254 4294901760
3.0658889 -1.556087 -0.42215544 4294901760
10.006082 -5.0807676 1.7774086 4294901760
3.3486898 -1.7003574 -0.32857716 4294901760
11.968963 -6.0800834 2.609504 4294901760
3.6874557 -1.873991 -0.21677555 4294901760
11.86621 -6.0330982 3.0732813 4294901760
4.1404576 -2.1060286 -0.081083886 4294901760
11.726849 -5.9673958 3.5256331 4294901760
2.2678559 -1.1575252 -0.68224704 4294901760
4.6749907 -2.3871679 0.091625139 4294901760
2.4191656 -1.2358191 -0.62716353 4294901760
5.3803267 -2.7485142 0.31663257 4294901760
2.6065397 -1.332112 -0.56899244 4294901760
6.3791871 -3.2615855 0.62682408 4294901760
2.8015497 -1.4330086 -0.49840027 4294901760
7.7701797 -3.9762015 1.0717192 4294901760
3.0536432 -1.562628 -0.42118049 4294901760
10.05248 -5.146328 1.788672 4294901760
3.3640141 -1.722935 -0.33066887 4294901760
17.835884 -9.1388712 3.8955564 4294901760
3.6880009 -1.8904955 -0.21719423 4294901760
11.849606 -6.074192 3.0741811 4294901760
4.1370091 -2.1215723 -0.081153691 4294901760
11.722466 -6.0141869 3.5302918 4294901760
2.2605696 -1.1632715 -0.68121177 4294901760
4.6777158 -2.408149 0.09183456 4294901760
2.4219842 -1.2474037 -0.62896317 4294901760
5.3818364 -2.7718277 0.31726059 4294901760
2.5986178 -1.33895 -0.5682292 4294901760
6.3895874 -3.2936761 0.62891585 4294901760
2.8231173 -1.4558718 -0.5030933 4294901760
7.7728281 -4.0101376 1.0739127 4294901760
3.0484445 -1.5727457 -0.42118049 4294901760
10.003761 -5.1633263 1.7830403 4294901760
3.3529713 -1.7313386 -0.33014596 4294901760
17.770596 -9.1799459 3.8879244 4294901760
3.6852605 -1.9045491 -0.21740359 4294901760
11.829398 -6.1134534 3.0741811 4294901760
4.1228456 -2.1316059 -0.081014074 4294901760
11.707605 -6.0556898 3.5318449 4294901760
2.2498403 -1.1672028 -0.67914116 4294901760
4.6768045 -2.4273329 0.091974184 4294901760
2.4230225 -1.2581223 -0.63031286 4294901760
10.972895 -5.6999626 0.6480239 4294901760
2.5941632 -1.3475599 -0.5682292 4294901760
6.3697901 -3.3102527 0.62804425 4294901760
2.8165214 -1.4643143 -0.50278044 4294901760
7.7876658 -4.0505476 1.0778127 4294901760
3.0535018 -1.5888752 -0.42264292 4294901760
10.055765 -5.2346997 1.795555 4294901760
3.3363047 -1.7375104 -0.32910007 4294901760
11.93118 -6.2136259 2.6148465 4294901760
3.6877806 -1.9213735 -0.21792693 4294901760
11.809713 -6.1556091 3.074631 4294901760
4.1224728 -2.1496828 -0.081153691 4294901760
11.660703 -6.0831175 3.52408 4294901760
2.2421241 -1.1736493 -0.67810595 4294901760
4.6647596 -2.4417882 0.091904372 4294901760
2.4203427 -1.2674768 -0.63076276 4294901760
5.3871226 -2.8223085 0.318726 4294901760
2.5926843 -1.3588816 -0.56899244 4294901760
10.834237 -5.6808667 1.0702726 4294901760
2.791893 -1.4645337 -0.49933887 4294901760
7.7875419 -4.085084 1.0797625 4294901760
3.0584836 -1.6050589 -0.42410538 4294901760
10.037432 -5.2697692 1.795555 4294901760
3.3337471 -1.7509985 -0.3294487 4294901760
11.817953 -6.2098274 2.5950024 4294901760
3.6966248 -1.943241 -0.21886899 4294901760
11.797422 -6.2042952 3.0773304 4294901760
4.1220231 -2.1677828 -0.081293307 4294901760
11.649656 -6.1291809 3.5271859 4294901760
2.2448471 -1.1850762 -0.68017644 4294901760
4.666388 -2.4644721 0.0921138 4294901760
2.4018965 -1.2690562 -0.62716353 4294901760
5.4049945 -2.8569677 0.32040074 4294901760
2.5913966 -1.3697584 -0.56975567 4294901760
10.821385 -5.7223759 1.0709697 4294901760
2.8024788 -1.4825838 -0.50215465 4294901760
10.699055 -5.662467 1.4863187 4294901760
3.0525804 -1.616258 -0.42410538 4294901760
10.098347 -5.3490562 1.809947 4294901760
3.3343489 -1.7669373 -0.33014596 4294901760
11.572424 -6.1324558 2.5457737 4294901760
3.6757021 -1.9486489 -0.21803163 4294901760
11.527784 -6.113955 3.0125444 4294901760
4.1175833 -2.1847506 -0.081363119 4294901760
11.633939 -6.1754603 3.5292566 4294901760
2.2507191 -1.1987449 -0.68328232 4294901760
4.6718769 -2.4882662 0.092393041 4294901760
2.4008918 -1.2792654 -0.62806332 4294901760
5.5518503 -2.9594331 0.32971656 4294901760
2.5932884 -1.3829426 -0.57128215 4294901760
5.7130704 -3.0479331 0.56651235 4294901760
2.7987685 -1.4937756 -0.50246757 4294901760
10.682726 -5.7016487 1.4868062 4294901760
3.0364132 -1.6212935 -0.42264292 4294901760
10.100523 -5.395442 1.8137014 4294901760
3.3387041 -1.7841997 -0.33119181 4294901760
10.63052 -5.6833243 2.3431346 4294901760
3.6650131 -1.960224 -0.21782227 4294901760
11.453751 -6.1285839 2.9990475 4294901760
4.1275635 -2.2085447 -0.081712164 4294901760
2.2433274 -1.2043743 -0.68224704 4294901760
4.6702094 -2.5083437 0.092532657 4294901760
2.3981283 -1.2885609 -0.62851328 4294901760
5.4346852 -2.9201617 0.32333156 4294901760
2.5783124 -1.3859571 -0.56899244 4294901760
2.8007581 -1.5067919 -0.50371903 4294901760
10.66975 -5.7426662 1.487781 4294901760
3.0377266 -1.6356472 -0.42361787 4294901760
10.618272 -5.71735 1.9100651 4294901760
3.3415394 -1.799986 -0.33206338 4294901760
3.6725566 -1.9799491 -0.21865964 4294901760
4.1096568 -2.2165246 -0.081502736 4294901760
11.329812 -6.1132345 3.4495404 4294901760
2.2323141 -1.2085187 -0.68017644 4294901760
4.6689 -2.5276251 0.092672281 4294901760
2.4041235 -1.3020746 -0.63121265 4294901760
5.4016299 -2.9267449 0.32197085 4294901760
2.5769107 -1.3968198 -0.56975567 4294901760
5.392695 -2.9243395 0.53670508 4294901760
2.806165 -1.5217214 -0.50559622 4294901760
3.0357754 -1.6476055 -0.42410538 4294901760
5.5760155 -3.0275297 1.0049351 4294901760
3.3334851 -1.8106881 -0.33188906 4294901760
10.449403 -5.6759248 2.3114603 4294901760
3.6694806 -1.9940239 -0.21886899 4294901760
10.33423 -5.6180372 2.7156091 4294901760
4.1089215 -2.234678 -0.081642359 4294901760
10.339452 -5.6255522 3.153969 4294901760
2.2316861 -1.2177655 -0.68121177 4294901760
4.6670694 -2.5477397 0.092811897 4294901760
2.4081154 -1.3151288 -0.63346219 4294901760
5.4194241 -2.9609041 0.32364559 4294901760
2.5791562 -1.4091228 -0.57128215 4294901760
5.3637362 -2.9316947 0.5347876 4294901760
2.7939034 -1.5277165 -0.50434476 4294901760
3.0404539 -1.66391 -0.42556778 4294901760
3.3344531 -1.8255595 -0.33258632 4294901760
10.412308 -5.7029343 2.3076441 4294901760
3.6800132 -2.0164185 -0.2199157 4294901760
10.321393 -5.6578236 2.7174089 4294901760
4.1116161 -2.254776 -0.08185178 4294901760
10.204578 -5.5984235 3.1187694 4294901760
2.2341919 -1.2292732 -0.68328232 4294901760
4.6616511 -2.5659437 0.092881702 4294901760
2.3949747 -1.3188267 -0.63121265 4294901760
5.4143038 -2.9826941 0.32395959 4294901760
2.5776608 -1.4200116 -0.57204539 4294901760
2.7920134 -1.5393672 -0.50497049 4294901760
5.2998109 -2.9232395 0.74315935 4294901760
3.036365 -1.6754723 -0.42581153 4294901760
5.2866912 -2.9184101 0.95644045 4294901760
3.3280604 -1.8371879 -0.33258632 4294901760
10.397493 -5.7420926 2.308789 4294901760
3.6677077 -2.0263541 -0.21960169 4294901760
10.311813 -5.6994734 2.7201083 4294901760
4.1089702 -2.2720177 -0.081956498 4294901760
10.201879 -5.6433611 3.123946 4294901760
2.2298875 -1.2370644 -0.68328232 4294901760
4.6596603 -2.586082 0.093021333 4294901760
2.3886528 -1.3262327 -0.63076276 4294901760
5.3863993 -2.9918778 0.32291287 4294901760
2.5726883 -1.4290007 -0.57204539 4294901760
10.717627 -5.9555578 1.0727129 4294901760
2.78317 -1.5471843 -0.50434476 4294901760
3.0252941 -1.6831657 -0.4250803 4294901760
5.26439 -2.9301214 0.9542504 4294901760
3.3338132 -1.8555764 -0.33380648 4294901760
10.377387 -5.7783518 2.308789 4294901760
3.6623569 -2.0401165 -0.21970637 4294901760
10.283344 -5.7306905 2.7178588 4294901760
4.1114941 -2.2921891 -0.082165927 4294901760
10.178743 -5.6770563 3.1229107 4294901760
2.2322996 -1.2486129 -0.68535286 4294901760
4.6575847 -2.6062374 0.09316095 4294901760
2.3942115 -1.340274 -0.63346219 4294901760
5.3794079 -3.0126133 0.32312223 4294901760
2.5711102 -1.4398911 -0.57280862 4294901760
10.695034 -5.9919596 1.0725386 4294901760
2.7880912 -1.5626847 -0.50622195 4294901760
10.591445 -5.9387813 1.4909496 4294901760
3.0228629 -1.6956578 -0.42556778 4294901760
3.3255782 -1.8662274 -0.33363217 4294901760
10.369137 -5.8212676 2.3114603 4294901760
3.6674032 -2.0597343 -0.22043908 4294901760
10.263278 -5.7665515 2.7178588 4294901760
4.0999813 -2.3045676 -0.082096115 4294901760
10.165601 -5.7163396 3.1249812 4294901760
2.2195139 -1.2516528 -0.68276465 4294901760
4.6623917 -2.6303399 0.093440183 4294901760
2.3912156 -1.3495809 -0.63391209 4294901760
5.3845115 -3.0402102 0.32406428 4294901760
2.5660684 -1.4488571 -0.57280862 4294901760
6.4065132 -3.6187289 0.64373231 4294901760
2.7860589 -1.5743512 -0.50684774 4294901760
10.567195 -5.973762 1.4904622 4294901760
3.0272932 -1.7120627 -0.42703021 4294901760
3.3221836 -1.8803666 -0.3339808 4294901760
10.352171 -5.8593621 2.3122237 4294901760
3.6671429 -2.0764599 -0.22085775 4294901760
10.249868 -5.8061829 2.7196581 4294901760
4.0988712 -2.3228085 -0.082235746 4294901760
10.138863 -5.7479782 3.1229107 4294901760
2.2149115 -1.2597792 -0.68276465 4294901760
4.6497054 -2.6446214 0.093370378 4294901760
2.3915713 -1.3608108 -0.63526177 4294901760
5.3825455 -3.0639274 0.32458761 4294901760
2.564153 -1.4601955 -0.57357186 4294901760
10.347197 -5.8947587 1.0418597 4294901760
2.7716892 -1.5796615 -0.50528342 4294901760
3.0264719 -1.725569 -0.42776144 4294901760
10.264361 -5.8546877 1.8715822 4294901760
3.3138692 -1.8909642 -0.33380648 4294901760
10.325511 -5.8943453 2.3110785 4294901760
3.6595078 -2.0898867 -0.22085775 4294901760
10.231903 -5.8456454 2.7205582 4294901760
4.1081014 -2.3470221 -0.082584791 4294901760
10.125446 -5.787169 3.1249812 4294901760
2.220556 -1.2732689 -0.68587047 4294901760
4.6521235 -2.668611 0.093614712 4294901760
2.3764262 -1.3637476 -0.63256234 4294901760
5.3891406 -3.0926383 0.32563433 4294901760
2.5658507 -1.473047 -0.57509834 4294901760
10.343835 -5.9407635 1.0436028 4294901760
2.7661583 -1.5893267 -0.50528342 4294901760
5.2853222 -3.0379679 0.74852157 4294901760
3.0252898 -1.7396188 -0.42849267 4294901760
5.2520771 -3.0200784 0.9595691 4294901760
3.3158834 -1.9074878 -0.33467805 4294901760
10.306574 -5.9313307 2.3114603 4294901760
3.6591139 -2.1066339 -0.22127645 4294901760
10.221568 -5.8871613 2.7232575 4294901760
4.0998836 -2.3613477 -0.082584791 4294901760
10.111879 -5.8263364 3.1270518 4294901760
2.2160978 -1.2810123 -0.68587047 4294901760
4.6588297 -2.6930299 0.093928859 4294901760
2.3752651 -1.3735718 -0.63346219 4294901760
5.3817706 -3.1134315 0.32584369 4294901760
2.5640917 -1.4839615 -0.57586157 4294901760
6.4210758 -3.7176769 0.64913595 4294901760
2.7694201 -1.6034399 -0.50684774 4294901760
5.2649126 -3.0495083 0.74705911 4294901760
3.0074811 -1.7426745 -0.42678648 4294901760
5.2397947 -3.0374026 0.95925629 4294901760
3.3126521 -1.9210497 -0.33502665 4294901760
10.298737 -5.9723701 2.3141315 4294901760
3.6521077 -2.1187563 -0.22127645 4294901760
10.191876 -5.9151559 2.7205582 4294901760
4.1019921 -2.381669 -0.082794219 4294901760
10.09482 -5.8635378 3.128087 4294901760
2.2135072 -1.2893264 -0.68638813 4294901760
4.656312 -2.7133036 0.094068475 4294901760
2.3771901 -1.3857802 -0.63526177 4294901760
5.3760452 -3.135217 0.32615772 4294901760
2.5557649 -1.490478 -0.57509834 4294901760
6.3949447 -3.7309172 0.64774144 4294901760
2.7689242 -1.6160843 -0.50778633 4294901760
5.2765212 -3.0808792 0.75022775 4294901760
3.0082362 -1.7571671 -0.42776144 4294901760
5.2359819 -3.0596609 0.96050775 4294901760
3.3059261 -1.9326013 -0.33502665 4294901760
10.284606 -6.0122466 2.3156581 4294901760
3.6481383 -2.1335082 -0.22148579 4294901760
10.176211 -5.9536486 2.7219076 4294901760
4.0867496 -2.3919327 -0.082654595 4294901760
10.084294 -5.9045963 3.1311929 4294901760
2.2037692 -1.2944952 -0.68483526 4294901760
4.6606059 -2.7376425 0.094347708 4294901760
2.3756986 -1.3960444 -0.63616157 4294901760
5.3891735 -3.168134 0.32762313 4294901760
2.5502849 -1.4998354 -0.57509834 4294901760
5.9484854 -3.4997318 0.60381496 4294901760
2.7680895 -1.6292281 -0.50872493 4294901760
5.2725782 -3.1033072 0.7512027 4294901760
3.0140586 -1.7747074 -0.42946759 4294901760
5.2167592 -3.0729063 0.95894337 4294901760
3.302593 -1.9461526 -0.33537531 4294901760
10.242206 -6.0379372 2.3110785 4294901760
3.6488955 -2.151938 -0.22200914 4294901760
9.8740301 -5.8255367 2.6467741 4294901760
4.0835428 -2.4092319 -0.082759313 4294901760
10.046986 -5.9299421 3.1260166 4294901760
2.1992371 -1.3021801 -0.68483526 4294901760
4.6505408 -2.7547061 0.094347708 4294901760
2.3772719 -1.4087162 -0.63796121 4294901760
5.388391 -3.1930356 0.32825115 4294901760
2.551789 -1.5127329 -0.57662481 4294901760
5.8351245 -3.4605126 0.5935306 4294901760
2.7555904 -1.6348488 -0.50747347 4294901760
5.2611685 -3.1226115 0.7512027 4294901760
3.0075336 -1.7857428 -0.42946759 4294901760
5.2026038 -3.0890803 0.95831764 4294901760
3.2957795 -1.9576687 -0.33537531 4294901760
10.224442 -6.0756569 2.3118417 4294901760
3.6499457 -2.169765 -0.22253251 4294901760
9.8569851 -5.8619609 2.6476738 4294901760
4.0888577 -2.4316485 -0.083038554 4294901760
10.036185 -5.9709029 3.1291223 4294901760
2.2096081 -1.3187593 -0.68949395 4294901760
4.6430979 -2.771138 0.094382621 4294901760
2.3658946 -1.4125959 -0.63616157 4294901760
5.4200797 -3.2374299 0.33086795 4294901760
2.5464931 -1.5216311 -0.57662481 4294901760
5.8178797 -3.477793 0.59300768 4294901760
2.7501538 -1.643978 -0.50747347 4294901760
5.2439694 -3.1359653 0.75022775 4294901760
3.008409 -1.7997825 -0.43044254 4294901760
5.1985698 -3.11128 0.9595691 4294901760
3.297473 -1.9742786 -0.33624685 4294901760
3.6393037 -2.1798041 -0.22232316 4294901760
9.8425074 -5.8976207 2.6490238 4294901760
4.0974965 -2.4561875 -0.083387598 4294901760
9.9954004 -5.9939771 3.1229107 4294901760
2.208534 -1.3280705 -0.69052929 4294901760
4.645391 -2.7945442 0.094626948 4294901760
2.360949 -1.4208456 -0.63616157 4294901760
5.4378343 -3.2738423 0.33264738 4294901760
2.5515249 -1.5361428 -0.57891452 4294901760
5.8182621 -3.5042622 0.59422785 4294901760
2.7528582 -1.6586649 -0.50903779 4294901760
5.2295914 -3.1522019 0.7497403 4294901760
2.9953089 -1.8061728 -0.42946759 4294901760
5.1944432 -3.1334884 0.96082056 4294901760
3.3059139 -1.9950417 -0.33781564 4294901760
10.149232 -6.1248245 2.3042095 4294901760
3.6350923 -2.1945589 -0.22253251 4294901760
9.2413568 -5.5813437 2.4924579 4294901760
4.0923204 -2.4725437 -0.083457403 4294901760
10.005831 -6.0478182 3.132746 4294901760
2.1970439 -1.3321496 -0.68845868 4294901760
4.6578374 -2.8242204 0.095080711 4294901760
2.3626399 -1.4331211 -0.63796121 4294901760
5.5032096 -3.3394294 0.33735761 4294901760
2.5358081 -1.5393717 -0.57662481 4294901760
5.8019729 -3.5234952 0.59387922 4294901760
2.7518253 -1.6718206 -0.50997645 4294901760
5.2219486 -3.1724985 0.75022775 4294901760
2.9923785 -1.8186792 -0.42995507 4294901760
5.1733465 -3.1454437 0.95894337 4294901760
3.3023341 -2.0086401 -0.33816427 4294901760
3.6338484 -2.2120214 -0.2229512 4294901760
9.2557907 -5.6364627 2.5019057 4294901760
4.0870805 -2.4888937 -0.083527215 4294901760
2.1923802 -1.3398108 -0.68845868 4294901760
4.6525726 -2.8444028 0.095185429 4294901760
2.3640213 -1.4458377 -0.63976079 4294901760
5.414268 -3.3126705 0.33264738 4294901760
2.5337689 -1.5502633 -0.57738805 4294901760
5.7828407 -3.5395658 0.59318197 4294901760
2.7476571 -1.6824474 -0.51028925 4294901760
5.2204428 -3.1978381 0.75169015 4294901760
2.9941554 -1.8348207 -0.43117377 4294901760
5.160099 -3.1633515 0.9586305 4294901760
3.2919054 -2.0180724 -0.33781564 4294901760
5.8341393 -3.5779669 1.3303204 4294901760
3.6312125 -2.2278256 -0.22326522 4294901760
9.2393799 -5.6707759 2.5028055 4294901760
4.074523 -2.5017643 -0.083457403 4294901760
8.5877905 -5.2749825 2.7005181 4294901760
2.1876903 -1.3474554 -0.68845868 4294901760
4.6392107 -2.8585279 0.095115617 4294901760
2.3655956 -1.4581714 -0.64156044 4294901760
5.4026718 -3.3315499 0.33264738 4294901760
2.5316839 -1.5611593 -0.57815129 4294901760
5.7738419 -3.5618222 0.5935306 4294901760
2.7384057 -1.6899536 -0.50966352 4294901760
5.2126269 -3.2181268 0.75217766 4294901760
2.9911103 -1.8473473 -0.43166125 4294901760
5.1624694 -3.189651 0.96113342 4294901760
3.291621 -2.0337403 -0.3385129 4294901760
5.8049145 -3.5879879 1.3265042 4294901760
3.62851 -2.2436388 -0.22357923 4294901760
4.0793691 -2.5243902 -0.083736651 4294901760
2.1862559 -1.3571215 -0.68949395 4294901760
4.6427941 -2.8831434 0.09539485 4294901760
2.3571804 -1.4643631 -0.64066058 4294901760
5.4045801 -3.3588221 0.33348474 4294901760
2.5295541 -1.5720595 -0.57891452 4294901760
5.7562976 -3.5787988 0.59300768 4294901760
2.7375221 -1.702632 -0.51060218 4294901760
5.1946197 -3.2321081 0.7512027 4294901760
2.9964409 -1.8651201 -0.43336743 4294901760
5.1580114 -3.2118282 0.96238494 4294901760
3.2895756 -2.048377 -0.33903584 4294901760
5.8023534 -3.6144578 1.3287939 4294901760
3.6206563 -2.2562909 -0.22357923 4294901760
8.4851646 -5.2897725 2.3084476 4294901760
4.0807128 -2.5449636 -0.083946079 4294901760
8.3884916 -5.2335715 2.6492717 4294901760
2.1880565 -1.368843 -0.6915645 4294901760
4.6428723 -2.9056978 0.095604278 4294901760
2.3487511 -1.4705142 -0.63976079 4294901760
5.3860526 -3.3734264 0.33306605 4294901760
2.5340343 -1.5871323 -0.58120424 4294901760
5.7539005 -3.6052182 0.59405357 4294901760
2.7382572 -1.7163738 -0.51185364 4294901760
5.1849875 -3.2512755 0.75144643 4294901760
2.9798224 -1.8692387 -0.431905 4294901760
5.150115 -3.2319136 0.96301067 4294901760
3.289156 -2.0640836 -0.33973309 4294901760
5.7996774 -3.6409523 1.3310837 4294901760
3.614449 -2.269978 -0.22368389 4294901760
4.0819626 -2.5655766 -0.0841555 4294901760
8.4617558 -5.3204055 2.6782596 4294901760
2.1848993 -1.3775027 -0.69208211 4294901760
4.6394672 -2.9261537 0.095743902 4294901760
2.345252 -1.4797437 -0.64021069 4294901760
5.3883491 -3.3997948 0.33390343 4294901760
2.5251582 -1.5938723 -0.580441 4294901760
5.7193799 -3.6114519 0.59178752 4294901760
2.7389297 -1.7301415 -0.51310509 4294901760
5.1903877 -3.279959 0.75388384 4294901760
2.9799912 -1.8838719 -0.43287995 4294901760
5.1293511 -3.2426407 0.96113342 4294901760
3.2886665 -2.0798118 -0.34043032 4294901760
5.8134785 -3.6779697 1.3371896 4294901760
3.6233802 -2.293262 -0.22473061 4294901760
4.0649848 -2.5737505 -0.083980985 4294901760
8.2563839 -5.2295594 2.618731 4294901760
2.1751859 -1.3820132 -0.69052929 4294901760
4.6466165 -2.9522467 0.096092947 4294901760
2.3518445 -1.4948299 -0.64336002 4294901760
5.381505 -3.421798 0.33421743 4294901760
2.5162661 -1.6005697 -0.57967776 4294901760
5.6966538 -3.6249764 0.59074163 4294901760
2.7448432 -1.7466379 -0.51529521 4294901760
5.174459 -3.2939548 0.75315261 4294901760
2.9804251 -1.8980087 -0.43385491 4294901760
5.1229987 -3.2637103 0.96207207 4294901760
3.2713056 -2.0848544 -0.33938447 4294901760
5.8029056 -3.6982825 1.3375711 4294901760
3.6191237 -2.3074124 -0.22493997 4294901760
9.9565954 -6.3503819 2.7264068 4294901760
4.0677767 -2.5954537 -0.084225312 4294901760
8.2673903 -5.2770572 2.6280487 4294901760
2.1738453 -1.3913014 -0.6915645 4294901760
4.632915 -2.9662921 0.096023142 4294901760
2.3449712 -1.5019792 -0.64291006 4294901760
5.3953562 -3.4557836 0.33578753 4294901760
2.5208628 -1.6152601 -0.58196747 4294901760
5.6829238 -3.6427724 0.59056729 4294901760
2.7304151 -1.750877 -0.51373082 4294901760
5.1662707 -3.314141 0.75364012 4294901760
2.9737816 -1.9084009 -0.43385491 4294901760
5.1221228 -3.287082 0.96394926 4294901760
3.2710803 -2.0999963 -0.34008169 4294901760
5.7850046 -3.7153327 1.3364263 4294901760
3.6261699 -2.3297474 -0.22588199 4294901760
9.9835463 -6.4167075 2.7399037 4294901760
4.0709224 -2.616497 -0.084469646 4294901760
8.4204655 -5.4141479 2.6824007 4294901760
2.1754694 -1.4030693 -0.69363505 4294901760
4.6297746 -2.9859738 0.096162759 4294901760
2.341615 -1.5108037 -0.64336002 4294901760
5.4000406 -3.4854269 0.33683425 4294901760
2.5185077 -1.6261798 -0.58273071 4294901760
5.7254028 -3.6982615 0.59631962 4294901760
2.7312312 -1.764209 -0.51498228 4294901760
5.1519179 -3.3290999 0.75315261 4294901760
2.9807737 -1.9268734 -0.43580481 4294901760
5.113935 -3.3070874 0.96457505 4294901760
3.2720945 -2.1168125 -0.34095326 4294901760
5.7759495 -3.7366288 1.3371896 4294901760
3.6083641 -2.3352487 -0.22525398 4294901760
9.7773647 -6.3301024 2.689065 4294901760
4.0701566 -2.6361268 -0.084644176 4294901760
8.4193497 -5.4550629 2.6880949 4294901760
2.1700659 -1.4114122 -0.69363505 4294901760
4.6311603 -3.0132596 0.096442007 4294901760
2.3289986 -1.5159391 -0.64156044 4294901760
5.3966618 -3.5126731 0.33746228 4294901760
2.5056641 -1.6315529 -0.58120424 4294901760
5.7445488 -3.7419677 0.59980583 4294901760
2.7224724 -1.7740804 -0.51466948 4294901760
5.1418386 -3.351922 0.75364012 4294901760
2.9766788 -1.9404724 -0.43629229 4294901760
5.1045079 -3.3288567 0.96520072 4294901760
3.270617 -2.1337154 -0.34165049 4294901760
5.7707682 -3.7662232 1.3394792 4294901760
3.6073225 -2.3551741 -0.22577733 4294901760
