# .PCD v0.7 - Point Cloud Data file format
VERSION 0.7
FIELDS x y z rgb
SIZE 4 4 4 4
TYPE F F F U
COUNT 1 1 1 1
WIDTH 509
HEIGHT 1
VIEWPOINT 0 0 0 1 0 0 0
POINTS 509
DATA ascii
3.0959187 -0.36806995 0.16339287 4288698613
3.0091693 -0.35828909 0.26512775 4288698613
2.9034114 -0.34672481 0.35902712 4288698613
2.8439696 -0.34063321 0.45366001 4288698613
3.1025448 -0.37984532 0.16381156 4288698613
3.0197661 -0.37024567 0.26617363 4288698613
2.921886 -0.35928017 0.3614645 4288698613
2.8290396 -0.34886608 0.45146993 4288698613
3.1210158 -0.39316919 0.16485828 4288698613
3.0145016 -0.38028565 0.265825 4288698613
2.9403079 -0.37196863 0.36390188 4288698613
2.8395627 -0.3602308 0.45334715 4288698613
3.1315088 -0.40560046 0.16548631 4288698613
3.0289629 -0.39285603 0.26721951 4288698613
2.9429288 -0.38274202 0.36438939 4288698613
2.8598344 -0.37295043 0.45678869 4288698613
3.1419528 -0.41810977 0.16611435 4288698613
3.0473223 -0.40605828 0.26896262 4288698613
2.9455101 -0.39353815 0.36487687 4288698613
2.8741784 -0.38502908 0.45929164 4288698613
3.1464107 -0.42988577 0.16642836 4288698613
3.0577302 -0.41831324 0.27000847 4288698613
2.9480517 -0.40435705 0.36536431 4288698613
2.8884723 -0.39721242 0.46179458 4288698613
3.1567585 -0.44252986 0.16705638 4288698613
3.072036 -0.4311997 0.27140298 4288698613
2.9623482 -0.41685817 0.36731425 4288698613
2.8812001 -0.40646476 0.46085599 4288698613
3.1670563 -0.45525131 0.16768442 4288698613
3.0705121 -0.44192049 0.27140298 4288698613
2.976593 -0.42946395 0.36926416 4288698613
2.887584 -0.41765067 0.46210748 4288698613
3.1773033 -0.46805009 0.16831245 4288698613
3.0768349 -0.45379871 0.27210024 4288698613
2.9947133 -0.44275486 0.37170154 4288698613
2.9056489 -0.43062356 0.46523616 4288698613
3.1874998 -0.48092595 0.16894048 4288698613
3.0949326 -0.46751204 0.27384335 4288698613
2.9892242 -0.45261133 0.37121406 4288698613
2.9197521 -0.4431349 0.46773914 4288698613
2.8299413 -0.43000942 0.55639905 4288698613
3.1129718 -0.48135719 0.27558646 4288698613
2.9954727 -0.464259 0.37218902 4288698613
2.9338033 -0.45574981 0.47024205 4288698613
2.8555825 -0.44410911 0.56174171 4288698613
3.1269298 -0.49525702 0.27698094 4288698613
3.0095184 -0.47719938 0.37413892 4288698613
2.9360964 -0.46660799 0.47086781 4288698613
2.8519967 -0.45426351 0.56136012 4288698613
3.1291151 -0.50680608 0.27732956 4288698613
3.0234249 -0.49077111 0.37608883 4288698613
2.9422488 -0.4781214 0.47211927 4288698613
2.8620198 -0.46610954 0.56364983 4288698613
3.1351893 -0.51902723 0.27802682 4288698613
3.0374479 -0.50339085 0.37803873 4288698613
2.9542027 -0.49065441 0.47430936 4288698613
2.8682051 -0.47688574 0.56517625 4288698613
3.1491675 -0.53207648 0.2794213 4288698613
3.0356722 -0.51399052 0.37803873 4288698613
2.9680524 -0.50360709 0.4768123 4288698613
2.8703938 -0.48755223 0.56593949 4288698613
3.1669245 -0.54645365 0.28116441 4288698613
3.0495081 -0.52728957 0.37998864 4288698613
2.983794 -0.51699978 0.47962815 4288698613
2.880281 -0.49958196 0.5682292 4288698613
3.1846197 -0.56096125 0.28290752 4288698613
3.0632877 -0.54069149 0.38193855 4288698613
2.9819713 -0.527412 0.47962815 4288698613
2.8959179 -0.51271331 0.57166374 4288698613
3.1846032 -0.57242668 0.28308186 4288698613
3.0809183 -0.55489981 0.38437593 4288698613
2.9839997 -0.53851938 0.48025388 4288698613
2.9095666 -0.52561098 0.57471669 4288698613
3.1904244 -0.58497685 0.28377908 4288698613
3.0945818 -0.56852037 0.38632584 4288698613
3.0131857 -0.554654 0.48525977 4288698613
2.9212298 -0.53825438 0.57738805 4288698613
3.196197 -0.59757465 0.28447634 4288698613
3.0945299 -0.5796845 0.38656959 4288698613
3.0170555 -0.56626183 0.48619837 4288698613
2.9251213 -0.54953545 0.57853287 4288698613
3.0111799 -0.57604748 0.48557264 4288698613
2.9328265 -0.56158882 0.580441 4288698613
2.9443367 -0.57445461 0.58311236 4288698613
2.940388 -0.58434606 0.58273071 4288698613
2.9947784 -0.16900712 0.052357223 4288698613
3.0200877 -0.18154222 0.052810986 4288698613
2.9286256 -0.17707029 0.15376306 4288698613
3.0334053 -0.19297187 0.053055316 4288698613
2.9279897 -0.18729201 0.15376306 4288698613
3.0327132 -0.20355925 0.053055316 4288698613
2.9512308 -0.1991249 0.15501912 4288698613
3.0359738 -0.21442595 0.053125124 4288698613
2.9704401 -0.21083948 0.15606584 4288698613
3.0391953 -0.22531782 0.053194933 4288698613
2.8789589 -0.21495411 0.25257733 4288698613
3.0503523 -0.23685408 0.053404365 4288698613
2.9768608 -0.23219302 0.15648453 4288698613
2.8980544 -0.22655506 0.25432047 4288698613
3.0574794 -0.2481474 0.053543981 4288698613
2.9800558 -0.24238721 0.15669388 4288698613
2.9091604 -0.23764306 0.25536633 4288698613
3.0646102 -0.25895852 0.053683605 4288698613
2.9991369 -0.25395325 0.15774059 4288698613
2.9043863 -0.2469513 0.2550177 4288698613
3.010216 -0.26494801 0.15836863 4288698613
2.9154592 -0.25763351 0.25606358 4288698613
3.0252323 -0.27638248 0.15920599 4288698613
2.9304614 -0.26875579 0.25745806 4288698613
2.8385887 -0.26132926 0.35000879 4288698613
3.0240984 -0.28852427 0.15920599 4288698613
2.9452252 -0.28203657 0.25885254 4288698613
2.8414686 -0.27310178 0.35049626 4288698613
3.0349982 -0.3002584 0.15983403 4288698613
2.9600837 -0.29389042 0.26024702 4288698613
2.8523996 -0.28370178 0.35195872 4288698613
3.0459073 -0.31154048 0.16046207 4288698613
2.9590931 -0.30370474 0.26024702 4288698613
2.8691638 -0.29548705 0.35415235 4288698613
3.0646629 -0.32427239 0.16150878 4288698613
2.96594 -0.31487346 0.26094431 4288698613
2.8760638 -0.30583951 0.35512727 4288698613
3.0793958 -0.33670479 0.16234615 4288698613
2.9767628 -0.32600856 0.26199016 4288698613
2.8789251 -0.31631061 0.35561478 4288698613
3.0742321 -0.34700379 0.16213681 4288698613
2.9913857 -0.33871004 0.26338464 4288698613
2.8817484 -0.32680538 0.35610226 4288698613
2.8184628 -0.32062495 0.44927984 4288698613
3.0809379 -0.35865653 0.1625555 4288698613
3.002059 -0.35053629 0.26443052 4288698613
2.8963044 -0.33921263 0.35805216 4288698613
2.8251741 -0.3313818 0.4505313 4288698613
3.0995624 -0.37124655 0.16360222 4288698613
3.00088 -0.36048955 0.26443052 4288698613
2.9148719 -0.35118979 0.36048955 4288698613
2.8319044 -0.3416951 0.45178279 4288698613
3.1220343 -0.38499704 0.16485828 4288698613
3.0036228 -0.37092721 0.26477915 4288698613
2.9255114 -0.3623178 0.36195198 4288698613
2.8326545 -0.35182169 0.45209566 4288698613
3.128597 -0.39689812 0.16527697 4288698613
3.0280044 -0.38467377 0.2670452 4288698613
2.9281676 -0.37302932 0.36243945 4288698613
2.8549225 -0.36471114 0.45585006 4288698613
3.1271927 -0.40781656 0.16527697 4288698613
3.0404725 -0.3970471 0.26826537 4288698613
2.9347203 -0.3842791 0.36341441 4288698613
2.8614666 -0.37570313 0.45710155 4288698613
3.1376274 -0.42032108 0.165905 4288698613
3.0469668 -0.40871742 0.26896262 4288698613
2.9530349 -0.39716688 0.36585179 4288698613
2.8620951 -0.38595313 0.45741442 4288698613
3.1559274 -0.43399188 0.16695172 4288698613
3.049469 -0.41989434 0.26931125 4288698613
2.9673622 -0.40964425 0.3678017 4288698613
2.8724711 -0.39756632 0.45929164 4288698613
3.1682372 -0.44695845 0.16768442 4288698613
3.0598218 -0.43220845 0.2703571 4288698613
2.9737763 -0.4211131 0.36877668 4288698613
2.8886676 -0.41008961 0.46210748 4288698613
3.1785178 -0.45973036 0.16831245 4288698613
3.0819559 -0.44631314 0.27244884 4288698613
2.968359 -0.43092057 0.36828917 4288698613
2.9028566 -0.42244619 0.4646104 4288698613
2.8266871 -0.41186523 0.55525422 4288698613
3.1768937 -0.47082263 0.16831245 4288698613
3.0922046 -0.45882308 0.27349472 4288698613
2.9786177 -0.4430317 0.36975163 4288698613
2.915041 -0.43461555 0.46680051 4288698613
3.1791801 -0.48250866 0.16852181 4288698613
3.1063421 -0.47200853 0.2748892 4288698613
2.9927528 -0.45581755 0.37170154 4288698613
2.9174116 -0.44538447 0.46742624 4288698613
3.1085289 -0.48400372 0.27523783 4288698613
3.0106754 -0.46984425 0.37413892 4288698613
2.9274697 -0.45790604 0.46930346 4288698613
2.8453398 -0.44607708 0.55983365 4288698613
3.1106689 -0.49602127 0.27558646 4288698613
3.0167739 -0.48212889 0.37511387 4288698613
2.9336557 -0.46937037 0.47055492 4288698613
2.8418267 -0.4556956 0.559452 4288698613
3.1326046 -0.51017708 0.27767819 4288698613
3.0190771 -0.49276975 0.37560135 4288698613
2.9457295 -0.48132592 0.472745 4288698613
2.8461125 -0.46606877 0.56059688 4288698613
3.1466186 -0.52317655 0.27907267 4288698613
3.0252588 -0.50408375 0.3765763 4288698613
2.9576705 -0.49388298 0.47493511 4288698613
2.8619788 -0.47841749 0.56403142 4288698613
3.1584296 -0.53704387 0.28029287 4288698613
3.0391364 -0.51730567 0.37852621 4288698613
2.9578755 -0.50453627 0.47524795 4288698613
2.8776228 -0.49188107 0.56746602 4288698613
3.1604619 -0.54874724 0.2806415 4288698613
3.0606883 -0.53252435 0.38145107 4288698613
2.9637907 -0.51673126 0.47649944 4288698613
2.8894262 -0.50428557 0.57013732 4288698613
3.1741233 -0.56311148 0.28203598 4288698613
3.0744469 -0.54598171 0.38340098 4288698613
2.9853067 -0.53122658 0.48025388 4288698613
2.8952894 -0.51625097 0.57166374 4288698613
3.038264 -0.36013994 0.053404365 4284156667
2.9184465 -0.35162047 -0.051310074 4284156667
3.0409584 -0.37122792 0.053474173 4284156667
2.9013255 -0.35983658 -0.051030833 4284156667
3.0475805 -0.38283753 0.053613789 4284156667
2.9000516 -0.36996192 -0.051030833 4284156667
3.0363092 -0.39219239 0.053439267 4284156667
2.9066737 -0.38112262 -0.051170457 4284156667
3.0250103 -0.40147331 0.053264745 4284156667
2.9092894 -0.39180025 -0.051240265 4284156667
3.0275533 -0.41257012 0.053334557 4284156667
2.9118655 -0.40250087 -0.051310074 4284156667
3.0300553 -0.42368954 0.053404365 4284156667
2.8985636 -0.41097841 -0.051100649 4284156667
3.032517 -0.4348315 0.053474173 4284156667
2.8971114 -0.42109376 -0.051100649 4284156667
3.0270238 -0.44483283 0.053404365 4284156667
2.9035354 -0.43238217 -0.051240265 4284156667
3.0254526 -0.45539641 0.053404365 4284156667
2.905962 -0.44311756 -0.051310074 4284156667
3.0238445 -0.46595445 0.053404365 4284156667
3.1779063 -0.49083003 0.16852181 4284156667
2.9083493 -0.4538753 -0.051379886 4284156667
3.0301006 -0.47775257 0.053543981 4284156667
3.1919556 -0.50441396 0.16935916 4284156667
2.8948989 -0.46213311 -0.051170457 4284156667
3.0322776 -0.48949262 0.053613789 4284156667
3.1901755 -0.51555294 0.16935916 4284156667
2.8853736 -0.47094685 -0.051030833 4284156667
3.0148532 -0.4969435 0.053334557 4284156667
3.1903269 -0.52701116 0.16946384 4284156667
2.8955469 -0.48298994 -0.051240265 4284156667
3.0131004 -0.50746429 0.053334557 4284156667
3.1924067 -0.538809 0.16967319 4284156667
2.9017286 -0.49443799 -0.051379886 4284156667
3.0231349 -0.52001286 0.053543981 4284156667
3.1747603 -0.54723513 0.1688358 4284156667
2.8999851 -0.50456387 -0.051379886 4284156667
3.0291796 -0.53194588 0.053683605 4284156667
3.184633 -0.56039059 0.16946384 4284156667
2.8863926 -0.5125857 -0.051170457 4284156667
3.0273042 -0.54251641 0.053683605 4284156667
3.1865892 -0.5722096 0.16967319 4284156667
2.8885212 -0.52337104 -0.051240265 4284156667
3.0135894 -0.55092269 0.053474173 4284156667
3.1885016 -0.58404911 0.16988252 4284156667
2.8984752 -0.53563094 -0.051449694 4284156667
3.023443 -0.56363755 0.053683605 4284156667
3.1864433 -0.5951755 0.16988252 4284156667
2.8965878 -0.54574531 -0.051449694 4284156667
3.0234215 -0.57456124 0.053718507 4284156667
3.1764987 -0.60480034 0.16946384 4284156667
2.894665 -0.55585295 -0.051449694 4284156667
3.0213976 -0.5851115 0.053718507 4284156667
3.1782894 -0.61664557 0.16967319 4284156667
2.8887823 -0.56518596 -0.051379886 4284156667
3.0232608 -0.59642863 0.053788319 4284156667
3.1721988 -0.62696159 0.16946384 4284156667
2.8828692 -0.57448447 -0.051310074 4284156667
3.0133181 -0.60540253 0.053648699 4284156667
3.183697 -0.64078951 0.17019655 4284156667
2.8886857 -0.58613473 -0.051449694 4284156667
3.0151048 -0.61671877 0.053718507 4284156667
3.1814408 -0.65189874 0.17019655 4284156667
2.8905387 -0.59702355 -0.051519506 4284156667
3.0246801 -0.6296851 0.053927936 4284156667
3.1674149 -0.66055363 0.16956852 4284156667
2.888437 -0.60710973 -0.051519506 4284156667
3.0224636 -0.64023936 0.053927936 4284156667
3.153367 -0.66911852 0.16894048 4284156667
2.8823893 -0.61635232 -0.051449694 4284156667
3.0280297 -0.65247071 0.054067552 4284156667
2.8763125 -0.62556005 -0.051379886 4284156667
3.0140138 -0.66046834 0.053858127 4284156667
2.8936365 -0.63991433 -0.051728934 4284156667
3.0194972 -0.6727246 0.053997744 4284156667
2.8874829 -0.64913386 -0.051659122 4284156667
3.0249319 -0.68502718 0.054137368 4284156667
2.8890984 -0.66009998 -0.051728934 4284156667
3.0303171 -0.69737583 0.054276984 4284156667
2.8750892 -0.66746747 -0.051519506 4284156667
3.0278642 -0.70794934 0.054276984 4284156667
2.8766344 -0.67841733 -0.051589314 4284156667
3.013701 -0.71574187 0.054067552 4284156667
2.8859169 -0.69124937 -0.051798742 4284156667
3.0189605 -0.72813272 0.054207176 4284156667
2.8873725 -0.70226413 -0.05186855 4284156667
3.0241694 -0.74056894 0.054346792 4284156667
2.8887863 -0.71329737 -0.051938362 4284156667
3.0254471 -0.75208557 0.054416601 4284156667
2.8786459 -0.72092974 -0.051798742 4284156667
3.0345707 -0.76504731 0.054626033 4284156667
2.879988 -0.73195887 -0.05186855 4284156667
3.014446 -0.77117473 0.05431189 4284156667
2.8851612 -0.74400491 -0.052008174 4284156667
3.0156069 -0.7826972 0.054381698 4284156667
2.8825464 -0.75407141 -0.052008174 4284156667
3.0049829 -0.79170686 0.054242078 4284156667
2.8952248 -0.76873666 -0.052287407 4284156667
3.0099289 -0.8042562 0.054381698 4284156667
2.8809383 -0.77571875 -0.052077983 4284156667
2.8782132 -0.78577036 -0.052077983 4284156667
2.8831615 -0.79794592 -0.052217599 4284156667
2.8843505 -0.80858207 -0.052287407 4284156667
2.8930521 -0.82192433 -0.052496839 4284156667
2.8749366 -0.8270905 -0.052217599 4284156667
2.8797114 -0.83935934 -0.052357223 4284156667
2.8842864 -0.85217464 -0.052496839 4284156667
2.8927886 -0.8656773 -0.052706268 4284156667
2.8916628 -0.87634969 -0.05274117 4284156667
2.8866746 -0.8858515 -0.052706268 4284156667
2.8835649 -0.89592254 -0.052706268 4284156667
2.8842351 -0.90718246 -0.05277608 4284156667
2.8905783 -0.92027813 -0.052950602 4284156667
2.9167237 -0.25158992 -0.051100649 4284156667
3.0537746 -0.2682448 0.053509079 4284156667
2.9198565 -0.26161763 -0.051170457 4284156667
3.0548594 -0.27855158 0.053543981 4284156667
2.9189732 -0.27129877 -0.051170457 4284156667
3.0537167 -0.29081231 0.053543981 4284156667
2.9258218 -0.2837863 -0.051310074 4284156667
3.0606959 -0.3017219 0.053683605 4284156667
2.908896 -0.29239756 -0.051030833 4284156667
2.9158664 -0.3028686 -0.051170457 4284156667
3.0426617 -0.32087049 0.053404365 4284156667
2.9108152 -0.31261799 -0.051100649 4284156667
3.0454991 -0.33192271 0.053474173 4284156667
2.9097061 -0.32277673 -0.051100649 4284156667
3.0403476 -0.34210432 0.053404365 4284156667
2.9204819 -0.33429596 -0.051310074 4284156667
3.043046 -0.35370719 0.053474173 4284156667
2.9073818 -0.34308228 -0.051100649 4284156667
3.0537696 -0.36522114 0.053683605 4284156667
2.8982875 -0.35175788 -0.050961025 4284156667
3.0406332 -0.37388152 0.053474173 4284156667
2.9049792 -0.36286411 -0.051100649 4284156667
3.031374 -0.38348913 0.053334557 4284156667
2.9116285 -0.37402129 -0.051240265 4284156667
3.033983 -0.39458403 0.053404365 4284156667
2.910305 -0.38418248 -0.051240265 4284156667
3.0405154 -0.40623146 0.053543981 4284156667
2.9010203 -0.3932645 -0.051100649 4284156667
3.0311544 -0.41575545 0.053404365 4284156667
2.8996296 -0.40338853 -0.051100649 4284156667
3.021764 -0.42521909 0.053264745 4284156667
2.902163 -0.41407254 -0.051170457 4284156667
3.028178 -0.43690664 0.053404365 4284156667
2.9086146 -0.42535788 -0.051310074 4284156667
3.0266345 -0.44747427 0.053404365 4284156667
2.9071119 -0.43550825 -0.051310074 4284156667
3.0329626 -0.45923394 0.053543981 4284156667
2.8976679 -0.44444069 -0.051170457 4284156667
3.027307 -0.46973401 0.053474173 4284156667
3.1813376 -0.49477157 0.16873114 4284156667
2.8920686 -0.45443738 -0.051100649 4284156667
3.0176654 -0.47957104 0.053334557 4284156667
3.1953707 -0.50838399 0.16956852 4284156667
2.8983622 -0.46579906 -0.051240265 4284156667
3.0160584 -0.48957542 0.053334557 4284156667
2.900748 -0.47605544 -0.051310074 4284156667
3.018364 -0.50022811 0.053404365 4284156667
3.1819847 -0.52848601 0.16904517 4284156667
2.8990686 -0.48617804 -0.051310074 4284156667
3.0284293 -0.5127641 0.053613789 4284156667
3.1840587 -0.54025823 0.1692545 4284156667
2.8934119 -0.49561951 -0.051240265 4284156667
3.0265293 -0.52386039 0.053613789 4284156667
3.1781216 -0.55124211 0.16904517 4284156667
2.8915761 -0.50622112 -0.051240265 4284156667
3.0128672 -0.53233421 0.053404365 4284156667
3.1919112 -0.56511801 0.16988252 4284156667
2.8976657 -0.51771837 -0.051379886 4284156667
3.1882203 -0.60760885 0.2839534 4287240385
3.0944374 -0.59085524 0.38681334 4287240385
3.1704328 -0.61569548 0.28255892 4287240385
3.0865102 -0.60051596 0.38608211 4287240385
3.0013955 -0.58504325 0.48432118 4287240385
3.1448102 -0.62211877 0.28046718 4287240385
3.0766065 -0.60974252 0.38510716 4287240385
2.9935222 -0.59436244 0.48338255 4287240385
3.1348069 -0.63151854 0.27976993 4287240385
3.0588923 -0.61733651 0.38315722 4287240385
2.9798121 -0.60245931 0.48150533 4287240385
2.9133151 -0.58954424 0.57776964 4287240385
3.1247761 -0.64085615 0.27907267 4287240385
3.0333853 -0.62321627 0.38023239 4287240385
2.9738214 -0.61206073 0.4808796 4287240385
2.897779 -0.59693712 0.57509834 4287240385
3.1108181 -0.64931715 0.27802682 4287240385
3.0137038 -0.63014448 0.37803873 4287240385
2.9600661 -0.62000775 0.47900239 4287240385
2.8899133 -0.60584027 0.57395351 4287240385
3.0968392 -0.65768862 0.27698094 4287240385
3.0076025 -0.63983423 0.37755126 4287240385
2.9404962 -0.62663108 0.47618657 4287240385
2.8781805 -0.61387664 0.57204539 4287240385
3.1392984 -0.67759335 0.16831245 4287240385
3.0750499 -0.66428757 0.27523783 4287240385
2.9937096 -0.64780986 0.37608883 4287240385
2.9247773 -0.63396233 0.47399649 4287240385
2.8741014 -0.62350333 0.57166374 4287240385
3.1330125 -0.68769109 0.16810311 4287240385
3.0532525 -0.67074245 0.27349472 4287240385
2.9856141 -0.6569761 0.3753576 4287240385
2.9186881 -0.64331746 0.47337076 4287240385
2.8565705 -0.63014871 0.56861085 4287240385
3.1247449 -0.69731802 0.16778909 4287240385
3.0431147 -0.67965907 0.27279747 4287240385
2.9581187 -0.66175997 0.37218902 4287240385
2.9106421 -0.65220594 0.47243217 4287240385
2.825618 -0.633672 0.56288654 4287240385
3.0950229 -0.70203584 0.16632369 4287240385
3.0407238 -0.6902774 0.27279747 4287240385
2.9480481 -0.67032117 0.37121406 4287240385
2.9006433 -0.66060734 0.47118065 4287240385
2.8253033 -0.64396775 0.56326818 4287240385
3.0769835 -0.7092464 0.16548631 4287240385
3.0266471 -0.69820011 0.27175158 4287240385
2.9340854 -0.67792636 0.36975163 4287240385
2.8713768 -0.66449326 0.46680051 4287240385
2.8230381 -0.65382594 0.56326818 4287240385
3.0744891 -0.71998274 0.16548631 4287240385
3.0028534 -0.70375997 0.26983419 4287240385
2.9278359 -0.68725681 0.36926416 4287240385
2.8671165 -0.67406011 0.46648762 4287240385
2.8073614 -0.66052872 0.56059688 4287240385
3.0641849 -0.72886163 0.16506761 4287240385
2.9829345 -0.71008509 0.26826537 4287240385
2.919626 -0.69609153 0.36853293 4287240385
2.8570607 -0.68222892 0.46523616 4287240385
2.7744868 -0.66302317 0.55449098 4287240385
3.0499737 -0.7367394 0.16443959 4287240385
2.9765644 -0.71955681 0.26791674 4287240385
2.8998144 -0.70207465 0.36633927 4287240385
2.8469827 -0.69033575 0.46398467 4287240385
3.0318654 -0.74357545 0.16360222 4287240385
2.9701648 -0.72899276 0.26756814 4287240385
2.8819244 -0.70840186 0.36438939 4287240385
2.8330474 -0.69743621 0.46210748 4287240385
3.0100009 -0.74880368 0.1625555 4287240385
2.9560022 -0.73646611 0.26652226 4287240385
2.8755817 -0.71749616 0.36390188 4287240385
2.8115537 -0.70204157 0.4589788 4287240385
2.9996228 -0.75735027 0.16213681 4287240385
2.9302342 -0.74091911 0.26443052 4287240385
2.8616402 -0.72410631 0.36243945 4287240385
2.7899373 -0.70699894 0.45585006 4287240385
2.9969606 -0.76781625 0.16213681 4287240385
2.9142513 -0.74716836 0.26321036 4287240385
2.8514042 -0.73211616 0.3614645 4287240385
2.7874525 -0.7167334 0.45585006 4287240385
2.9787984 -0.77425355 0.16129944 4287240385
2.9172781 -0.75935024 0.2637333 4287240385
2.8296213 -0.73706114 0.35902712 4287240385
2.7811108 -0.72546178 0.45522434 4287240385
2.9527662 -0.77905196 0.16004337 4287240385
2.9030511 -0.76647717 0.26268741 4287240385
2.8115478 -0.74336791 0.35707721 4287240385
2.7688854 -0.73312229 0.45366001 4287240385
2.9423115 -0.78728926 0.15962468 4287240385
2.8907351 -0.77402937 0.26181585 4287240385
2.8012662 -0.7511211 0.35610226 4287240385
2.7415078 -0.7361235 0.44959271 4287240385
2.989732 -0.81005138 0.054067552 4287240385
2.9318349 -0.79546303 0.15920599 4287240385
2.8610966 -0.77680647 0.25937548 4287240385
2.7947962 -0.75985312 0.35561478 4287240385
2.7351098 -0.7446509 0.44896698 4287240385
2.9714601 -0.81624508 0.053788319 4287240385
2.9232633 -0.80410314 0.15889199 4287240385
2.8602886 -0.78731763 0.2595498 4287240385
2.7825582 -0.7669667 0.3543961 4287240385
2.9570343 -0.82339394 0.053578887 4287240385
2.9090369 -0.81057602 0.15826395 4287240385
2.8440893 -0.79354894 0.25832963 4287240385
2.764569 -0.77240169 0.35244617 4287240385
2.952363 -0.83265245 0.053543981 4287240385
2.8831248 -0.81421185 0.15700789 4287240385
2.8317158 -0.8007611 0.25745806 4287240385
2.7543519 -0.77940303 0.35147122 4287240385
2.9379025 -0.83965605 0.053334557 4287240385
2.8688872 -0.82047307 0.15637985 4287240385
2.821383 -0.80795282 0.25676081 4287240385
2.7401657 -0.78572989 0.35000879 4287240385
2.9312601 -0.8482821 0.053264745 4287240385
2.8698423 -0.83159411 0.1565892 4287240385
2.8032379 -0.81335491 0.25536633 4287240385
2.737545 -0.79481226 0.35000879 4287240385
2.8591101 -0.83985543 0.15617052 4287240385
2.7870009 -0.81920195 0.25414613 4287240385
2.7422307 -0.80708236 0.35098374 4287240385
2.8944454 -0.86012191 0.052706268 4287240385
2.8446751 -0.8464129 0.15554248 4287240385
2.7860341 -0.82949406 0.25432047 4287240385
2.8799362 -0.86676252 0.052496839 4287240385
2.8264046 -0.85172737 0.15470509 4287240385
2.8730674 -0.87564397 0.052427031 4287240385
2.8119528 -0.85809046 0.15407708 4287240385
2.7649312 -0.84426898 0.25292596 4287240385
2.86235 -0.88330883 0.052287407 4287240385
2.8051236 -0.86672157 0.15386772 4287240385
2.7486427 -0.84979576 0.2517058 4287240385
2.836345 -0.88613915 0.05186855 4287240385
2.7906442 -0.87293041 0.1532397 4287240385
2.825608 -0.8936224 0.051728934 4287240385
2.7837718 -0.88146031 0.15303035 4287240385
2.8186622 -0.90226096 0.051659122 4287240385
