# .PCD v0.7 - Point Cloud Data file format
VERSION 0.7
FIELDS x y z intensity
SIZE 4 4 4 4
TYPE F F F F
COUNT 1 1 1 1
WIDTH 146
HEIGHT 1
VIEWPOINT 0 0 0 1 0 0 0
POINTS 146
DATA ascii
2.8792653 -0.92756039 -0.050918691 100
2.884773 -0.92257249 -0.046832558 100
2.890281 -0.91758454 -0.042746428 100
2.8957889 -0.91259658 -0.038660295 100
2.9012966 -0.90760869 -0.034574162 100
2.9068046 -0.90262073 -0.030488029 100
2.9123125 -0.89763284 -0.026401894 100
2.9178205 -0.89264488 -0.022315763 100
2.9233282 -0.88765699 -0.018229632 100
2.9288361 -0.88266903 -0.0141435 100
2.9343441 -0.87768108 -0.010057367 100
2.9398518 -0.87269318 -0.0059712357 100
2.9453597 -0.86770523 -0.0018851039 100
2.9508677 -0.86271733 0.002201031 100
2.9563754 -0.85772938 0.0062871659 100
2.9618833 -0.85274142 0.010373301 100
2.9673913 -0.84775352 0.014459436 100
2.9728992 -0.84276557 0.01854557 100
2.9784069 -0.83777767 0.022631705 100
2.9839149 -0.83278972 0.02671784 100
2.9894228 -0.82780176 0.030803975 100
2.9949305 -0.82281387 0.034890112 100
3.0004385 -0.81782591 0.038976245 100
3.0059464 -0.81283796 0.043062381 100
3.0114543 -0.80785006 0.047148515 100
3.0169621 -0.80286211 0.051234648 100
3.02247 -0.79787421 0.055320777 100
3.0279779 -0.79288626 0.059406906 100
3.0334857 -0.78789836 0.063493036 100
3.0389936 -0.78291041 0.067579165 100
3.0445015 -0.77792251 0.071665294 100
3.0500093 -0.77293456 0.075751424 100
3.0555172 -0.76794666 0.079837553 100
3.0610251 -0.76295871 0.083923683 100
3.0665329 -0.75797081 0.088009812 100
3.0720408 -0.75298285 0.092095934 100
3.0775487 -0.74799496 0.096182063 100
3.0830564 -0.743007 0.10026819 100
3.0885644 -0.73801911 0.10435432 100
3.0940723 -0.73303115 0.10844045 100
3.0995803 -0.72804326 0.11252658 100
3.105088 -0.7230553 0.11661271 100
3.1105959 -0.71806741 0.12069884 100
3.1161039 -0.71307945 0.12478497 100
3.1216116 -0.70809156 0.1288711 100
3.1271195 -0.7031036 0.13295722 100
3.1326275 -0.69811571 0.13704336 100
3.1381352 -0.69312775 0.14112948 100
3.1436431 -0.6881398 0.14521562 100
3.1491511 -0.6831519 0.14930174 100
3.1546588 -0.67816395 0.15338787 100
3.1601667 -0.67317605 0.157474 100
3.1656747 -0.6681881 0.16156013 100
3.1992576 -0.59049791 0.2799564 100
3.1939173 -0.59020364 0.28613895 100
3.1885772 -0.58990932 0.29232153 100
3.1832368 -0.58961499 0.29850408 100
3.1778967 -0.58932072 0.30468667 100
3.1725566 -0.58902639 0.31086922 100
3.1672163 -0.58873212 0.31705177 100
3.1618762 -0.5884378 0.32323435 100
3.1565359 -0.58814353 0.3294169 100
3.1511958 -0.5878492 0.33559948 100
3.1458557 -0.58755487 0.34178203 100
3.1405153 -0.5872606 0.34796458 100
3.1351752 -0.58696628 0.35414717 100
3.1298349 -0.58667201 0.36032972 100
3.1244948 -0.58637768 0.3665123 100
3.1191547 -0.58608341 0.37269485 100
3.1138144 -0.58578908 0.37887743 100
3.1084743 -0.58549476 0.38506001 100
3.1031339 -0.58520049 0.39124256 100
3.0977938 -0.58490616 0.39742514 100
3.0924537 -0.58461189 0.4036077 100
3.0871134 -0.58431756 0.40979028 100
3.0817733 -0.5840233 0.41597283 100
3.0764329 -0.58372897 0.42215541 100
3.0710928 -0.58343464 0.42833796 100
3.0657525 -0.58314037 0.43452054 100
3.0604124 -0.58284605 0.44070309 100
3.0550723 -0.58255178 0.44688568 100
3.049732 -0.58225745 0.45306823 100
3.0443919 -0.58196318 0.45925078 100
3.0390518 -0.58166885 0.46543333 100
3.0337114 -0.58137453 0.47161588 100
3.0283713 -0.58108026 0.47779846 100
3.023031 -0.58078593 0.48398101 100
3.0176909 -0.58049166 0.49016356 100
3.0123508 -0.58019733 0.49634612 100
3.0070105 -0.57990307 0.50252867 100
3.0016704 -0.57960874 0.50871122 100
2.9963303 -0.57931441 0.51489383 100
2.9909899 -0.57902014 0.52107638 100
2.9856498 -0.57872581 0.52725893 100
2.9803095 -0.57843155 0.53344148 100
2.9749694 -0.57813722 0.53962404 100
2.9696293 -0.57784295 0.54580659 100
3.2072673 -0.51597655 0.18860418 100
3.2036119 -0.50912398 0.18555392 100
3.1999562 -0.50227135 0.18250369 100
3.1963005 -0.49541873 0.17945343 100
3.1926448 -0.4885661 0.17640318 100
3.1889892 -0.4817135 0.17335294 100
3.1853337 -0.47486088 0.17030269 100
3.1816781 -0.46800828 0.16725245 100
3.1780224 -0.46115565 0.1642022 100
3.1743667 -0.45430306 0.16115196 100
3.170711 -0.44745043 0.15810171 100
3.1670554 -0.44059783 0.15505147 100
3.1633999 -0.43374521 0.15200122 100
3.1597443 -0.42689258 0.14895098 100
3.1560886 -0.42003998 0.14590073 100
3.1524329 -0.41318735 0.14285047 100
3.1487772 -0.40633473 0.13980024 100
3.1451216 -0.3994821 0.13674998 100
3.1414661 -0.3926295 0.13369973 100
3.1378105 -0.38577688 0.13064949 100
3.1341548 -0.37892425 0.12759924 100
3.1304991 -0.37207165 0.12454899 100
3.1268435 -0.36521903 0.12149875 100
3.123188 -0.3583664 0.1184485 100
3.1195323 -0.35151377 0.11539825 100
3.1158767 -0.34466118 0.11234801 100
3.112221 -0.33780855 0.10929776 100
3.1085653 -0.33095595 0.10624752 100
3.1049097 -0.32410336 0.10319728 100
3.1012542 -0.31725073 0.10014703 100
3.0975986 -0.31039813 0.097096786 100
3.0939429 -0.30354553 0.094046548 100
3.0902872 -0.29669291 0.090996303 100
3.0866315 -0.28984031 0.087946057 100
3.0829761 -0.28298768 0.084895819 100
3.0793204 -0.27613509 0.081845574 100
3.0756648 -0.26928249 0.078795329 100
3.0720091 -0.26242986 0.075745091 100
3.0683534 -0.25557727 0.072694845 100
3.064698 -0.24872465 0.0696446 100
3.0610423 -0.24187206 0.066594362 100
3.0573866 -0.23501945 0.063544117 100
3.053731 -0.22816683 0.060493875 100
3.0500753 -0.22131422 0.05744363 100
3.0464199 -0.21446162 0.054393388 100
3.0427642 -0.20760901 0.051343143 100
3.0391085 -0.2007564 0.048292901 100
3.0354528 -0.1939038 0.04524266 100
3.0317972 -0.18705119 0.042192414 100
