# .PCD v0.7 - Point Cloud Data file format
VERSION 0.7
FIELDS x y z intensity
SIZE 4 4 4 4
TYPE F F F F
COUNT 1 1 1 1
WIDTH 146
HEIGHT 1
VIEWPOINT 0 0 0 1 0 0 0
POINTS 146
DATA ascii
2.8793261 -0.92620718 -0.050696272 100
2.8848355 -0.9212392 -0.046589859 100
2.8903451 -0.91627127 -0.042483442 100
2.8958547 -0.91130328 -0.038377028 100
2.9013643 -0.90633535 -0.034270611 100
2.9068739 -0.90136743 -0.030164193 100
2.9123833 -0.89639944 -0.026057778 100
2.9178929 -0.89143151 -0.021951362 100
2.9234025 -0.88646352 -0.017844947 100
2.9289122 -0.88149559 -0.013738532 100
2.9344215 -0.87652767 -0.0096321162 100
2.9399312 -0.87155968 -0.0055257012 100
2.9454408 -0.86659175 -0.0014192861 100
2.9509504 -0.86162376 0.002687132 100
2.95646 -0.85665584 0.0067935502 100
2.9619694 -0.85168791 0.010899968 100
2.967479 -0.84671992 0.015006387 100
2.9729886 -0.84175199 0.019112805 100
2.9784982 -0.83678401 0.023219224 100
2.9840076 -0.83181608 0.027325641 100
2.9895172 -0.82684809 0.031432059 100
2.9950268 -0.82188016 0.035538476 100
3.0005364 -0.81691217 0.039644897 100
3.0060461 -0.81194425 0.043751314 100
3.0115554 -0.80697632 0.047857732 100
3.017065 -0.80200833 0.051964149 100
3.0225747 -0.7970404 0.056070562 100
3.0280843 -0.79207242 0.060176976 100
3.0335937 -0.78710449 0.064283386 100
3.0391033 -0.78213656 0.068389796 100
3.0446129 -0.77716857 0.072496213 100
3.0501225 -0.77220064 0.076602623 100
3.0556319 -0.76723272 0.080709033 100
3.0611415 -0.76226479 0.08481545 100
3.0666511 -0.7572968 0.08892186 100
3.0721607 -0.75232887 0.09302827 100
3.0776701 -0.74736094 0.097134687 100
3.0831797 -0.74239296 0.1012411 100
3.0886893 -0.73742503 0.10534751 100
3.0941989 -0.7324571 0.10945392 100
3.0997083 -0.72748911 0.11356033 100
3.1052179 -0.72252119 0.11766674 100
3.1107275 -0.71755326 0.12177315 100
3.1162372 -0.71258527 0.12587957 100
3.1217465 -0.70761734 0.12998597 100
3.1272562 -0.70264941 0.13409239 100
3.1327658 -0.69768143 0.13819881 100
3.1382754 -0.6927135 0.14230521 100
3.1437848 -0.68774557 0.14641163 100
3.1492944 -0.68277758 0.15051804 100
3.154804 -0.67780966 0.15462445 100
3.1603136 -0.67284173 0.15873086 100
3.165823 -0.6678738 0.16283728 100
3.1995869 -0.59098589 0.28027964 100
3.1942565 -0.59067929 0.28646564 100
3.1889262 -0.59037268 0.29265165 100
3.1835959 -0.59006608 0.29883766 100
3.1782656 -0.58975947 0.30502367 100
3.1729352 -0.58945292 0.31120965 100
3.1676049 -0.58914632 0.31739566 100
3.1622746 -0.58883971 0.32358167 100
3.1569443 -0.5885331 0.32976767 100
3.151614 -0.5882265 0.33595365 100
3.1462836 -0.58791989 0.34213966 100
3.1409533 -0.58761328 0.34832567 100
3.135623 -0.58730668 0.35451168 100
3.1302927 -0.58700007 0.36069769 100
3.1249623 -0.58669347 0.36688367 100
3.119632 -0.58638686 0.37306967 100
3.1143017 -0.58608031 0.37925568 100
3.1089714 -0.58577371 0.38544169 100
3.103641 -0.5854671 0.3916277 100
3.0983107 -0.58516049 0.39781371 100
3.0929804 -0.58485389 0.40399972 100
3.0876501 -0.58454728 0.41018572 100
3.0823197 -0.58424067 0.41637173 100
3.0769894 -0.58393407 0.42255771 100
3.0716591 -0.58362746 0.42874372 100
3.0663288 -0.58332086 0.43492973 100
3.0609984 -0.58301425 0.44111574 100
3.0556681 -0.58270764 0.44730172 100
3.0503378 -0.5824011 0.45348772 100
3.0450077 -0.58209449 0.45967373 100
3.0396774 -0.58178788 0.46585971 100
3.0343471 -0.58148128 0.47204572 100
3.0290167 -0.58117467 0.4782317 100
3.0236864 -0.58086807 0.48441771 100
3.0183561 -0.58056146 0.49060369 100
3.0130258 -0.58025485 0.49678969 100
3.0076954 -0.57994825 0.5029757 100
3.0023651 -0.57964164 0.50916171 100
2.9970348 -0.57933503 0.51534766 100
2.9917045 -0.57902849 0.52153367 100
2.9863741 -0.57872188 0.52771968 100
2.9810438 -0.57841527 0.53390568 100
2.9757135 -0.57810867 0.54009169 100
2.9703832 -0.57780206 0.54627764 100
3.2057865 -0.51462817 0.18850896 100
3.2021375 -0.50778764 0.18543361 100
3.1984885 -0.50094718 0.18235828 100
3.1948392 -0.49410662 0.17928293 100
3.1911902 -0.48726612 0.1762076 100
3.1875412 -0.4804256 0.17313227 100
3.1838923 -0.4735851 0.17005692 100
3.1802433 -0.46674457 0.16698159 100
3.1765943 -0.45990407 0.16390625 100
3.1729453 -0.45306355 0.16083091 100
3.1692963 -0.44622305 0.15775558 100
3.1656473 -0.43938252 0.15468024 100
3.1619983 -0.432542 0.15160491 100
3.1583493 -0.4257015 0.14852956 100
3.1547003 -0.41886097 0.14545423 100
3.1510513 -0.41202044 0.14237888 100
3.147402 -0.40517995 0.13930355 100
3.1437531 -0.39833942 0.1362282 100
3.1401041 -0.39149889 0.13315287 100
3.1364551 -0.3846584 0.13007753 100
3.1328061 -0.37781787 0.12700219 100
3.1291571 -0.37097734 0.12392685 100
3.1255081 -0.36413684 0.12085151 100
3.1218591 -0.35729632 0.11777617 100
3.1182101 -0.35045579 0.11470083 100
3.1145611 -0.34361526 0.11162549 100
3.1109121 -0.33677477 0.10855016 100
3.1072631 -0.32993427 0.10547482 100
3.1036141 -0.32309374 0.10239949 100
3.0999651 -0.31625324 0.099324152 100
3.0963159 -0.30941275 0.09624882 100
3.0926669 -0.30257222 0.093173489 100
3.0890179 -0.29573172 0.09009815 100
3.0853689 -0.28889123 0.087022819 100
3.0817199 -0.2820507 0.08394748 100
3.0780709 -0.2752102 0.080872148 100
3.0744219 -0.26836967 0.077796809 100
3.0707729 -0.26152918 0.074721478 100
3.0671239 -0.25468868 0.071646139 100
3.0634749 -0.24784817 0.068570808 100
3.0598259 -0.24100766 0.065495476 100
3.0561769 -0.23416714 0.062420137 100
3.0525279 -0.22732665 0.059344802 100
3.0488789 -0.22048613 0.056269471 100
3.0452299 -0.21364562 0.053194135 100
3.0415809 -0.20680512 0.0501188 100
3.0379319 -0.19996461 0.047043465 100
3.0342827 -0.1931241 0.04396813 100
3.0306337 -0.18628359 0.040892795 100
