# .PCD v0.7 - Point Cloud Data file format
VERSION 0.7
FIELDS x y z intensity
SIZE 4 4 4 4
TYPE F F F F
COUNT 1 1 1 1
WIDTH 129
HEIGHT 1
VIEWPOINT 0 0 0 1 0 0 0
POINTS 129
DATA ascii
3.2017574 -0.50647449 0.18718554 100
3.1973257 -0.49836069 0.18337414 100
3.1928942 -0.49024689 0.17956275 100
3.1884625 -0.48213309 0.17575134 100
3.1840308 -0.47401929 0.17193994 100
3.1795993 -0.46590549 0.16812854 100
3.1751676 -0.45779169 0.16431715 100
3.1707358 -0.44967791 0.16050574 100
3.1663043 -0.44156411 0.15669434 100
3.1618726 -0.43345031 0.15288293 100
3.1574409 -0.42533651 0.14907154 100
3.1530094 -0.41722271 0.14526014 100
3.1485777 -0.40910891 0.14144874 100
3.144146 -0.40099511 0.13763735 100
3.1397145 -0.3928813 0.13382594 100
3.1352828 -0.3847675 0.13001454 100
3.130851 -0.3766537 0.12620313 100
3.1264195 -0.3685399 0.12239173 100
3.1219878 -0.3604261 0.11858033 100
3.1175561 -0.3523123 0.11476893 100
3.1131246 -0.3441985 0.11095753 100
3.1086929 -0.33608469 0.10714612 100
3.1042612 -0.32797089 0.10333472 100
3.0998294 -0.31985706 0.099523321 100
3.0953979 -0.31174326 0.095711917 100
3.0909662 -0.30362946 0.091900513 100
3.0865345 -0.29551569 0.088089116 100
3.082103 -0.28740188 0.084277719 100
3.0776713 -0.27928808 0.080466323 100
3.0732396 -0.27117431 0.076654926 100
3.0688081 -0.26306051 0.072843529 100
3.0643764 -0.25494671 0.069032133 100
3.0599449 -0.24683292 0.065220736 100
3.0555131 -0.23871914 0.061409343 100
3.0510814 -0.23060535 0.057597946 100
3.0466499 -0.22249155 0.05378655 100
3.0422182 -0.21437776 0.049975153 100
3.0377865 -0.20626397 0.046163756 100
3.033355 -0.19815017 0.04235236 100
3.0289233 -0.19003639 0.038540963 100
3.1821496 -0.59060156 0.30681804 100
3.1768501 -0.59021252 0.31285182 100
3.1715508 -0.58982342 0.31888556 100
3.1662512 -0.58943439 0.32491931 100
3.1609519 -0.58904529 0.33095306 100
3.1556525 -0.58865625 0.33698684 100
3.150353 -0.58826715 0.34302059 100
3.1450536 -0.58787811 0.34905434 100
3.1397541 -0.58748901 0.35508811 100
3.1344547 -0.58709997 0.36112186 100
3.1291552 -0.58671087 0.36715561 100
3.1238558 -0.58632183 0.37318936 100
3.1185565 -0.58593273 0.37922311 100
3.1132569 -0.58554369 0.38525689 100
3.1079576 -0.58515459 0.39129063 100
3.102658 -0.58476555 0.39732441 100
3.0973587 -0.58437651 0.40335816 100
3.0920591 -0.58398741 0.40939191 100
3.0867598 -0.58359838 0.41542569 100
3.0814602 -0.58320928 0.42145944 100
3.0761609 -0.58282024 0.42749321 100
3.0708616 -0.58243114 0.43352696 100
3.065562 -0.5820421 0.43956071 100
3.0602627 -0.581653 0.44559449 100
3.0549631 -0.58126396 0.45162824 100
3.0496638 -0.58087486 0.45766202 100
3.0443642 -0.58048582 0.46369576 100
3.0390649 -0.58009672 0.46972951 100
3.0337656 -0.57970768 0.47576326 100
3.028466 -0.57931858 0.48179701 100
3.0231667 -0.57892954 0.48783076 100
3.0178671 -0.5785405 0.49386451 100
3.0125678 -0.5781514 0.49989825 100
3.0072684 -0.57776237 0.50593203 100
3.0019689 -0.57737327 0.51196575 100
2.9966695 -0.57698423 0.51799953 100
2.99137 -0.57659513 0.52403325 100
2.9860706 -0.57620609 0.53006703 100
2.9807711 -0.57581699 0.53610075 100
2.9754717 -0.57542795 0.54213452 100
2.9701724 -0.57503885 0.54816824 100
2.9040699 -0.90713733 -0.029936554 100
2.9094813 -0.90227044 -0.025890246 100
2.9148929 -0.89740348 -0.021843936 100
2.9203043 -0.89253658 -0.017797627 100
2.9257157 -0.88766962 -0.013751317 100
2.9311273 -0.88280272 -0.0097050071 100
2.9365387 -0.87793577 -0.0056586969 100
2.9419501 -0.87306881 -0.0016123885 100
2.9473615 -0.86820191 0.00243392 100
2.9527731 -0.86333495 0.0064802286 100
2.9581845 -0.85846806 0.010526537 100
2.9635959 -0.8536011 0.014572846 100
2.9690073 -0.8487342 0.018619154 100
2.9744189 -0.84386724 0.022665465 100
2.9798303 -0.83900028 0.026711777 100
2.9852417 -0.83413339 0.030758088 100
2.9906533 -0.82926643 0.0348044 100
2.9960647 -0.82439947 0.038850714 100
3.001476 -0.81953257 0.042897023 100
3.0068874 -0.81466562 0.046943337 100
3.0122991 -0.80979872 0.050989646 100
3.0177104 -0.80493176 0.05503596 100
3.0231218 -0.8000648 0.05908227 100
3.0285332 -0.7951979 0.063128583 100
3.0339448 -0.79033095 0.067174897 100
3.0393562 -0.78546399 0.071221203 100
3.0447676 -0.78059709 0.075267509 100
3.0501792 -0.77573013 0.079313815 100
3.0555906 -0.77086323 0.083360121 100
3.061002 -0.76599628 0.087406427 100
3.0664134 -0.76112938 0.091452733 100
3.071825 -0.75626242 0.095499039 100
3.0772364 -0.75139552 0.099545345 100
3.0826478 -0.74652857 0.10359165 100
3.0880592 -0.74166167 0.10763796 100
3.0934708 -0.73679471 0.11168426 100
3.0988822 -0.73192781 0.11573057 100
3.1042936 -0.72706085 0.11977687 100
3.109705 -0.72219396 0.12382317 100
3.1151166 -0.717327 0.12786949 100
3.120528 -0.7124601 0.13191579 100
3.1259394 -0.70759314 0.1359621 100
3.1313508 -0.70272624 0.1400084 100
3.1367621 -0.69785929 0.14405471 100
3.1421738 -0.69299239 0.14810102 100
3.1475852 -0.68812543 0.15214732 100
3.1529965 -0.68325853 0.15619361 100
3.1584079 -0.67839158 0.16023992 100
