# .PCD v0.7 - Point Cloud Data file format
VERSION 0.7
FIELDS x y z rgb
SIZE 4 4 4 4
TYPE F F F U
COUNT 1 1 1 1
WIDTH 406
HEIGHT 1
VIEWPOINT 0 0 0 1 0 0 0
POINTS 406
DATA ascii
2.8816822 -0.90195984 -0.052706268 4285052319
2.8785162 -0.91201335 -0.052706268 4285052319
2.8810277 -0.92388749 -0.052810986 4285052319
3.028178 -0.7820124 0.05459113 4285052319
3.0099545 -0.78852379 0.05431189 4285052319
2.9995921 -0.79644817 0.05417227 4285052319
2.9950037 -0.80587131 0.054137368 4285052319
2.9920299 -0.81684303 0.054137368 4285052319
2.9735985 -0.82353413 0.053858127 4285052319
2.951453 -0.82850444 0.053509079 4285052319
2.938926 -0.83606613 0.053334557 4285052319
2.9283037 -0.84410429 0.053194933 4285052319
2.9176617 -0.85207844 0.053055316 4285052319
2.9109848 -0.86061525 0.052985508 4285052319
2.8849747 -0.86388767 0.052566648 4285052319
2.87046 -0.870471 0.052357223 4285052319
2.8597577 -0.87813741 0.052217599 4285052319
2.8624034 -0.8898955 0.052322313 4285052319
2.8402052 -0.89387858 0.051973268 4285052319
2.8218248 -0.89893144 0.051694028 4285052319
2.8243794 -0.91061676 0.051798742 4285052319
3.1767545 -0.6347782 0.16977786 4285052319
3.1764762 -0.64626139 0.16988252 4285052319
3.1722457 -0.65694046 0.16977786 4285052319
3.1738417 -0.66883332 0.1699872 4285052319
3.1480532 -0.67488408 0.16873114 4285052319
3.1300669 -0.68246496 0.16789377 4285052319
3.1237657 -0.69252223 0.16768442 4285052319
3.1076903 -0.70034826 0.16695172 4285052319
3.0974393 -0.70940828 0.16653302 4285052319
3.0754914 -0.71568924 0.16548631 4285052319
3.0613122 -0.72366351 0.16485828 4285052319
3.0471153 -0.73154771 0.16423026 4285052319
3.0367811 -0.74028742 0.16381156 4285052319
3.0225461 -0.74800444 0.16318353 4285052319
3.0005457 -0.75368494 0.16213681 4285052319
2.9901552 -0.76218092 0.16171812 4285052319
2.9836092 -0.77161384 0.16150878 4285052319
2.9694421 -0.77846467 0.16088074 4285052319
2.9591234 -0.78625596 0.16046207 4285052319
2.9370759 -0.79138416 0.15941535 4285052319
2.9187431 -0.79793024 0.15857796 4285052319
2.9081004 -0.80648762 0.15815927 4285052319
2.901422 -0.81555295 0.15794992 4285052319
2.894716 -0.82458144 0.15774059 4285052319
2.8687928 -0.82803458 0.15648453 4285052319
2.8545287 -0.83418185 0.15585649 4285052319
2.8515995 -0.84414089 0.15585649 4285052319
2.8371568 -0.85064816 0.15522847 4285052319
2.830348 -0.85938585 0.15501912 4285052319
2.8120584 -0.86456496 0.15418173 4285052319
2.7899532 -0.8684395 0.15313502 4285052319
2.7830951 -0.8769725 0.15292569 4285052319
2.7876279 -0.88910961 0.15334436 4285052319
3.1911845 -0.56958592 0.28360477 4285052319
3.1951587 -0.58123487 0.28412771 4285052319
3.1911514 -0.59202111 0.2839534 4285052319
3.1734037 -0.60019457 0.28255892 4285052319
3.1752021 -0.61202228 0.28290752 4285052319
3.1652265 -0.62156641 0.28221029 4285052319
3.1474078 -0.62948537 0.28081581 4285052319
3.1217635 -0.63569731 0.27872407 4285052319
3.1039183 -0.64335555 0.27732956 4285052319
3.0938556 -0.65254158 0.27663234 4285052319
3.0837667 -0.66166526 0.27593508 4285052319
3.073652 -0.67072642 0.27523783 4285052319
3.051841 -0.67713571 0.27349472 4285052319
3.0261359 -0.68252414 0.27140298 4285052319
3.019851 -0.69219297 0.27105436 4285052319
3.0096548 -0.70092231 0.2703571 4285052319
3.0033116 -0.71050626 0.27000847 4285052319
2.9795034 -0.71586543 0.26809105 4285052319
2.9615016 -0.72248387 0.26669657 4285052319
2.9454238 -0.72946429 0.26547641 4285052319
2.9428596 -0.73974127 0.26547641 4285052319
2.9325371 -0.74803942 0.26477915 4285052319
2.9125488 -0.75377858 0.26321036 4285052319
2.8944831 -0.75989348 0.26181585 4285052319
2.8861709 -0.76795071 0.2612929 4285052319
2.8759139 -0.7754426 0.26059568 4285052319
2.8672869 -0.78440094 0.26007274 4285052319
2.8547935 -0.7922408 0.25920117 4285052319
2.840503 -0.79896432 0.25815532 4285052319
2.8262002 -0.80559766 0.25710943 4285052319
2.8271995 -0.81656367 0.25745806 4285052319
2.8166828 -0.82418936 0.25676081 4285052319
2.7870455 -0.82608962 0.25432047 4285052319
2.7766573 -0.83303702 0.25362319 4285052319
2.7622943 -0.83924919 0.25257733 4285052319
2.7593482 -0.84888631 0.25257733 4285052319
3.1031427 -0.57681423 0.38754454 4285052319
3.1108625 -0.58949065 0.38876322 4285052319
3.0873458 -0.59620571 0.38608211 4285052319
3.0735595 -0.60467976 0.38461968 4285052319
3.0597513 -0.61306489 0.38315722 4285052319
3.0498128 -0.62215453 0.3821823 4285052319
3.0301297 -0.62916446 0.37998864 4285052319
3.0065506 -0.63522387 0.37730753 4285052319
2.9868479 -0.64196068 0.37511387 4285052319
2.9826498 -0.65195894 0.37487015 4285052319
2.9745421 -0.66107434 0.37413892 4285052319
2.9605985 -0.66882879 0.37267649 4285052319
2.9388986 -0.67471731 0.37023908 4285052319
2.9249263 -0.68226635 0.36877668 4285052319
2.9109371 -0.68972594 0.36731425 4285052319
2.9046519 -0.69895393 0.36682677 4285052319
2.8944807 -0.7072041 0.36585179 4285052319
2.8688743 -0.71156889 0.36292693 4285052319
2.8548226 -0.71867114 0.3614645 4285052319
2.8561432 -0.72961462 0.36195198 4285052319
2.8458924 -0.73758787 0.36097702 4285052319
2.8356214 -0.74549842 0.36000207 4285052319
2.8120337 -0.74927545 0.35732093 4285052319
2.7980347 -0.75549155 0.3558585 4285052319
2.7856739 -0.76311934 0.3546398 4285052319
2.7790334 -0.77226132 0.35415235 4285052319
2.7667668 -0.77926636 0.35293365 4285052319
2.744941 -0.78347111 0.35049626 4285052319
2.7307479 -0.78973901 0.34903383 4285052319
2.7298796 -0.79982454 0.34927759 4285052319
3.0197444 -0.5733164 0.48682413 4285052319
3.0157852 -0.58347851 0.48651123 4285052319
2.9982255 -0.59094608 0.48400828 4285052319
2.9864607 -0.59946442 0.48244393 4285052319
2.9727376 -0.60751241 0.48056671 4285052319
2.962863 -0.61627644 0.47931525 4285052319
2.954896 -0.62538791 0.47837666 4285052319
2.9372458 -0.63237256 0.47587368 4285052319
2.9234428 -0.64008665 0.47399649 4285052319
2.915406 -0.64899969 0.4730579 4285052319
2.9015629 -0.65655667 0.47118065 4285052319
2.8992534 -0.66668099 0.47118065 4285052319
2.88152 -0.67320198 0.4686777 4285052319
2.8560886 -0.67778289 0.46492329 4285052319
2.8325808 -0.68265742 0.46148172 4285052319
2.8340185 -0.6934799 0.46210748 4285052319
2.8239119 -0.70146328 0.46085599 4285052319
2.8137841 -0.70938474 0.45960453 4285052319
2.7844985 -0.71234804 0.45522434 4285052319
2.7743468 -0.72007841 0.45397288 4285052319
2.7643023 -0.72726411 0.45272139 4285052319
2.7542408 -0.73439127 0.45146993 4285052319
2.7478466 -0.74296963 0.4508442 4285052319
2.9335713 -0.56810343 0.58082259 4285052319
2.9334965 -0.57871997 0.58120424 4285052319
2.9256842 -0.58779609 0.58005941 4285052319
2.9197679 -0.59721822 0.57929617 4285052319
2.9061329 -0.60500568 0.57700646 4285052319
2.8732731 -0.6086368 0.57090056 4285052319
2.8672926 -0.61783564 0.57013732 4285052319
2.8632007 -0.62742031 0.56975567 4285052319
2.864826 -0.63826483 0.57051897 4285052319
2.8300292 -0.64088947 0.56403142 4285052319
2.8162956 -0.64812249 0.56174171 4285052319
2.8101923 -0.6570552 0.56097847 4285052319
2.8059716 -0.66640699 0.56059688 4285052319
2.9392064 -0.24681203 -0.051484596 4285930033
2.9263744 -0.25602457 -0.051275171 4285930033
2.9234715 -0.26605672 -0.051240265 4285930033
2.9105797 -0.27513081 -0.051030833 4285930033
2.9096017 -0.28528893 -0.051030833 4285930033
2.9125674 -0.2958478 -0.051100649 4285930033
2.9235027 -0.30675662 -0.051310074 4285930033
2.9224694 -0.31644964 -0.051310074 4285930033
2.9094234 -0.32531577 -0.051100649 4285930033
2.9082115 -0.33597717 -0.051100649 4285930033
2.9109921 -0.34659952 -0.051170457 4285930033
2.9098268 -0.35625082 -0.051170457 4285930033
2.9125338 -0.36690572 -0.051240265 4285930033
2.8993361 -0.3755289 -0.051030833 4285930033
2.9019048 -0.38668129 -0.051100649 4285930033
2.9005375 -0.39680848 -0.051100649 4285930033
2.9070559 -0.40804261 -0.051240265 4285930033
2.9095721 -0.41875738 -0.051310074 4285930033
2.900105 -0.42825022 -0.051170457 4285930033
2.8906832 -0.43717474 -0.051030833 4285930033
2.9009969 -0.44909805 -0.051240265 4285930033
2.9073122 -0.46047303 -0.051379886 4285930033
2.9017386 -0.46997911 -0.051310074 4285930033
2.892189 -0.47879884 -0.051170457 4285930033
2.8905003 -0.48889148 -0.051170457 4285930033
2.8927171 -0.499659 -0.051240265 4285930033
2.9028606 -0.51133025 -0.051449694 4285930033
2.8971219 -0.52075249 -0.051379886 4285930033
2.8834848 -0.52869827 -0.051170457 4285930033
2.8855531 -0.53949535 -0.051240265 4285930033
2.8915098 -0.55106199 -0.051379886 4285930033
2.8934946 -0.56191427 -0.051449694 4285930033
2.8993621 -0.57356328 -0.051589314 4285930033
2.8855808 -0.58131099 -0.051379886 4285930033
2.8796158 -0.59057653 -0.051310074 4285930033
2.8892817 -0.60307616 -0.051519506 4285930033
2.8910713 -0.61398882 -0.051589314 4285930033
2.8928194 -0.62492126 -0.051659122 4285930033
2.882808 -0.63329899 -0.051519506 4285930033
2.8844833 -0.64422983 -0.051589314 4285930033
2.886117 -0.65517998 -0.051659122 4285930033
2.8916066 -0.66704839 -0.051798742 4285930033
2.8892605 -0.67713791 -0.051798742 4285930033
2.8752072 -0.68444067 -0.051589314 4285930033
2.8728006 -0.69447291 -0.051589314 4285930033
2.8820112 -0.70735651 -0.051798742 4285930033
2.8911669 -0.72031295 -0.052008174 4285930033
2.8925123 -0.731381 -0.052077983 4285930033
2.87832 -0.73849148 -0.05186855 4285930033
2.8757246 -0.74853414 -0.05186855 4285930033
2.8809609 -0.76010698 -0.052008174 4285930033
2.8900151 -0.77275556 -0.052217599 4285930033
2.8950202 -0.7849322 -0.052357223 4285930033
2.8805552 -0.79235542 -0.052147791 4285930033
2.8776317 -0.80290782 -0.052147791 4285930033
2.8863571 -0.81621271 -0.052357223 4285930033
2.8950243 -0.82958812 -0.052566648 4285930033
2.8882701 -0.8385734 -0.052496839 4285930033
2.8854735 -0.84814662 -0.052496839 4285930033
2.8824952 -0.85821372 -0.052496839 4285930033
2.883311 -0.86942476 -0.052566648 4285930033
2.8955588 -0.88415599 -0.052845888 4285930033
2.8848131 -0.89189541 -0.052706268 4285930033
3.0145638 -0.17329076 0.052706268 4285930033
3.0219243 -0.18429941 0.052845888 4285930033
3.0212965 -0.19431944 0.052845888 4285930033
3.0245898 -0.20513518 0.052915696 4285930033
3.0398502 -0.21629937 0.053194933 4285930033
3.0510018 -0.22833496 0.053404365 4285930033
3.0661349 -0.24023318 0.053683605 4285930033
3.0612476 -0.2511425 0.053613789 4285930033
3.0503902 -0.26097438 0.053439267 4285930033
3.0574281 -0.27233031 0.053578887 4285930033
3.0544677 -0.28281671 0.053543981 4285930033
3.0654051 -0.29462495 0.053753413 4285930033
3.0524187 -0.30413386 0.053543981 4285930033
3.0473604 -0.31437653 0.053474173 4285930033
3.0542548 -0.3253274 0.053613789 4285930033
3.0491836 -0.33501709 0.053543981 4285930033
3.0519092 -0.34664202 0.053613789 4285930033
3.0347297 -0.35596186 0.053334557 4285930033
3.037503 -0.36650246 0.053404365 4285930033
3.0362711 -0.37657318 0.053404365 4285930033
3.0428724 -0.38818166 0.053543981 4285930033
3.0414293 -0.39933175 0.053543981 4285930033
3.0320897 -0.4088769 0.053404365 4285930033
3.0266826 -0.41891009 0.053334557 4285930033
3.0331211 -0.43059695 0.053474173 4285930033
3.03548 -0.44228762 0.053543981 4285930033
3.0299623 -0.45229024 0.053474173 4285930033
3.0204582 -0.4616555 0.053334557 4285930033
3.0188284 -0.47219607 0.053334557 4285930033
3.0250599 -0.4839946 0.053474173 4285930033
3.0292723 -0.49551952 0.053578887 4285930033
3.0314689 -0.50674999 0.053648699 4285930033
3.0178545 -0.51530921 0.053439267 4285930033
3.0199776 -0.52652735 0.053509079 4285930033
3.0182149 -0.53653908 0.053509079 4285930033
3.0241938 -0.54849869 0.053648699 4285930033
3.0222607 -0.55905175 0.053648699 4285930033
3.0163608 -0.56885684 0.053578887 4285930033
3.0222118 -0.58089226 0.053718507 4285930033
3.0201654 -0.59143823 0.053718507 4285930033
3.0298491 -0.60432374 0.053927936 4285930033
3.0277212 -0.61489624 0.053927936 4285930033
3.0138066 -0.62303227 0.053718507 4285930033
3.0116134 -0.63354862 0.053718507 4285930033
3.021116 -0.64656824 0.053927936 4285930033
3.0305645 -0.65966183 0.054137368 4285930033
3.0321484 -0.67110068 0.054207176 4285930033
3.0180817 -0.67904711 0.053997744 4285930033
3.0195916 -0.69046956 0.054067552 4285930033
3.021059 -0.70191085 0.054137368 4285930033
3.0263748 -0.71428937 0.054276984 4285930033
3.0316415 -0.7267136 0.054416601 4285930033
3.0213144 -0.7353999 0.054276984 4285930033
3.0187292 -0.74594176 0.054276984 4285930033
3.0219259 -0.75793403 0.054381698 4285930033
3.0231376 -0.76946431 0.054451507 4285930033
3.1712213 -0.4400433 0.16778909 4285930033
3.1597795 -0.44970313 0.16726573 4285930033
3.1660151 -0.46243599 0.16768442 4285930033
3.1801839 -0.47584909 0.16852181 4285930033
3.1903486 -0.48876181 0.16914983 4285930033
3.1925695 -0.50051391 0.16935916 4285930033
3.1868587 -0.51102257 0.16914983 4285930033
3.1791425 -0.52117431 0.1688358 4285930033
3.1930625 -0.53490835 0.16967319 4285930033
3.1911757 -0.54605091 0.16967319 4285930033
3.1932826 -0.55731696 0.16988252 4285930033
3.1873851 -0.56775975 0.16967319 4285930033
3.1814537 -0.57816815 0.16946384 4285930033
3.1833436 -0.58999789 0.16967319 4285930033
3.18519 -0.60184789 0.16988252 4285930033
3.1909146 -0.61447322 0.17030121 4285930033
3.1809106 -0.62406975 0.16988252 4285930033
3.0117056 -0.15203942 0.052636456 4288127215
2.9324884 -0.17935868 0.1539724 4288127215
2.9418099 -0.19023828 0.15449576 4288127215
2.9590967 -0.20121211 0.1554378 4288127215
2.9663451 -0.21210986 0.15585649 4288127215
2.9735141 -0.22357965 0.15627518 4288127215
2.98068 -0.23458463 0.15669388 4288127215
2.9997056 -0.24714778 0.15774059 4288127215
3.014744 -0.25898474 0.15857796 4288127215
3.0018857 -0.26843923 0.15794992 4288127215
3.0088851 -0.27965549 0.15836863 4288127215
3.0237947 -0.29169095 0.15920599 4288127215
3.0426314 -0.30423135 0.16025271 4288127215
3.0614729 -0.31637245 0.16129944 4288127215
3.0604069 -0.32652292 0.16129944 4288127215
3.0632191 -0.33764136 0.16150878 4288127215
3.081805 -0.35112733 0.1625555 4288127215
3.0964296 -0.36374685 0.16339287 4288127215
3.1150346 -0.37640896 0.16443959 4288127215
3.1137018 -0.3872802 0.16443959 4288127215
3.1123309 -0.39814669 0.16443959 4288127215
3.1346128 -0.41267961 0.16569565 4288127215
3.1450286 -0.42522457 0.16632369 4288127215
2.8795481 -0.20691374 0.25257733 4288127215
2.8947022 -0.21816184 0.25397182 4288127215
2.8899107 -0.22845595 0.25362319 4288127215
2.9049809 -0.23985378 0.2550177 4288127215
2.9120662 -0.25067613 0.25571495 4288127215
2.9349866 -0.26297328 0.25780669 4288127215
2.9459534 -0.27432504 0.25885254 4288127215
2.944978 -0.2846067 0.25885254 4288127215
2.9439666 -0.29488483 0.25885254 4288127215
2.9587734 -0.30680335 0.26024702 4288127215
2.9656641 -0.31746158 0.26094431 4288127215
2.9923201 -0.33035517 0.26338464 4288127215
2.9871299 -0.34086859 0.26303601 4288127215
2.9898179 -0.35228097 0.26338464 4288127215
3.0084124 -0.36459067 0.26512775 4288127215
3.0230038 -0.37653503 0.26652226 4288127215
3.0334606 -0.38913339 0.26756814 4288127215
3.0360343 -0.40024054 0.26791674 4288127215
3.0425167 -0.41190514 0.26861399 4288127215
3.0647414 -0.42581323 0.27070573 4288127215
3.0749943 -0.43873164 0.27175158 4288127215
3.0931587 -0.45234573 0.27349472 4288127215
3.0955014 -0.46373045 0.27384335 4288127215
3.0978026 -0.47513711 0.27419198 4288127215
3.107935 -0.48780119 0.27523783 4288127215
3.1258852 -0.50180495 0.27698094 4288127215
3.1437755 -0.51593983 0.27872407 4288127215
3.1458852 -0.52756953 0.27907267 4288127215
3.1479521 -0.53922027 0.2794213 4288127215
3.1676395 -0.55398107 0.28133872 4288127215
2.8439593 -0.24581349 0.35049626 4288127215
2.823313 -0.25396082 0.34805888 4288127215
2.8421738 -0.2656619 0.35049626 4288127215
2.8570359 -0.27711448 0.35244617 4288127215
2.8600013 -0.28748274 0.35293365 4288127215
2.860955 -0.29766977 0.3531774 4288127215
2.8678472 -0.30800328 0.35415235 4288127215
2.8865402 -0.31969687 0.35658973 4288127215
2.8892934 -0.33072594 0.35707721 4288127215
2.9077756 -0.34364331 0.35951459 4288127215
2.9145026 -0.35424206 0.36048955 4288127215
2.9133117 -0.36390492 0.36048955 4288127215
2.9317129 -0.37660131 0.36292693 4288127215
2.9460566 -0.38942513 0.36487687 4288127215
2.9525476 -0.40077442 0.36585179 4288127215
2.9550629 -0.41162601 0.36633927 4288127215
2.9614687 -0.42306155 0.36731425 4288127215
2.975611 -0.43621647 0.36926416 4288127215
2.993701 -0.44954848 0.37170154 4288127215
3.0038855 -0.46180549 0.37316394 4288127215
3.0061774 -0.47290519 0.37365144 4288127215
3.0123477 -0.48465711 0.3746264 4288127215
3.0263078 -0.49774659 0.3765763 4288127215
3.0402131 -0.51093936 0.37852621 4288127215
3.0540631 -0.52423525 0.38047612 4288127215
3.0522144 -0.53489274 0.38047612 4288127215
3.066057 -0.54780442 0.38242605 4288127215
3.0758436 -0.56063938 0.38388845 4288127215
2.8212557 -0.31346327 0.44959271 4288127215
2.8307106 -0.3350367 0.45146993 4288127215
2.8354669 -0.34513789 0.45240852 4288127215
2.8440452 -0.35626101 0.45397288 4288127215
2.8388658 -0.36568168 0.45334715 4288127215
2.8492558 -0.37764144 0.45522434 4288127215
2.8694508 -0.39051509 0.45866591 4288127215
2.8856778 -0.4029879 0.46148172 4288127215
2.8998969 -0.41529864 0.46398467 4288127215
2.9022641 -0.42649892 0.4646104 4288127215
2.9027112 -0.43692115 0.46492329 4288127215
2.9226441 -0.45036015 0.46836486 4288127215
2.9366643 -0.46302056 0.47086781 4288127215
2.9447811 -0.47484091 0.47243217 4288127215
2.9470036 -0.48575974 0.4730579 4288127215
2.9491861 -0.49669987 0.47368363 4288127215
2.9746895 -0.51167971 0.47806379 4288127215
2.9788129 -0.52256519 0.47900239 4288127215
2.9925265 -0.53574485 0.48150533 4288127215
2.9964681 -0.54725218 0.48244393 4288127215
3.0061913 -0.55987859 0.48432118 4288127215
2.8397057 -0.41781205 0.55792552 4288127215
2.850302 -0.43972194 0.56059688 4288127215
2.8390536 -0.44813824 0.55868876 4288127215
2.8452244 -0.45929709 0.56021523 4288127215
2.8649116 -0.47274199 0.56441307 4288127215
2.8767953 -0.48502427 0.56708437 4288127215
2.8866935 -0.49706212 0.56937408 4288127215
2.8849409 -0.50713545 0.56937408 4288127215
2.8987029 -0.51947004 0.57242703 4288127215
2.920047 -0.53382194 0.57700646 4288127215
2.9336059 -0.5468899 0.58005941 4288127215
2.9297502 -0.55676025 0.57967776 4288127215
