# .PCD v0.7 - Point Cloud Data file format
VERSION 0.7
FIELDS x y z intensity
SIZE 4 4 4 4
TYPE F F F F
COUNT 1 1 1 1
WIDTH 146
HEIGHT 1
VIEWPOINT 0 0 0 1 0 0 0
POINTS 146
DATA ascii
2.8790705 -0.92465794 -0.04553606 100
2.8846052 -0.91976434 -0.041417949 100
2.8901398 -0.91487068 -0.037299842 100
2.8956745 -0.90997702 -0.033181734 100
2.9012091 -0.90508342 -0.029063625 100
2.906744 -0.90018976 -0.024945516 100
2.9122787 -0.8952961 -0.020827409 100
2.9178133 -0.8904025 -0.0167093 100
2.9233479 -0.88550884 -0.012591193 100
2.9288826 -0.88061517 -0.0084730852 100
2.9344175 -0.87572157 -0.004354978 100
2.9399521 -0.87082791 -0.00023687072 100
2.9454868 -0.86593431 0.0038812368 100
2.9510214 -0.86104065 0.0079993475 100
2.9565561 -0.85614699 0.012117458 100
2.962091 -0.85125339 0.016235568 100
2.9676256 -0.84635973 0.020353679 100
2.9731603 -0.84146607 0.02447179 100
2.9786949 -0.83657241 0.028589901 100
2.9842296 -0.83167881 0.032708012 100
2.9897645 -0.82678515 0.036826123 100
2.9952991 -0.82189149 0.04094423 100
3.0008337 -0.81699789 0.045062341 100
3.0063684 -0.81210423 0.049180452 100
3.011903 -0.80721056 0.053298563 100
3.0174379 -0.80231696 0.057416674 100
3.0229726 -0.7974233 0.061534777 100
3.0285072 -0.7925297 0.065652885 100
3.0340419 -0.78763604 0.069770984 100
3.0395765 -0.78274238 0.073889092 100
3.0451114 -0.77784878 0.078007199 100
3.0506461 -0.77295512 0.082125299 100
3.0561807 -0.76806152 0.086243406 100
3.0617154 -0.76316786 0.090361506 100
3.06725 -0.75827426 0.094479613 100
3.0727847 -0.7533806 0.09859772 100
3.0783195 -0.74848694 0.10271582 100
3.0838542 -0.74359334 0.10683393 100
3.0893888 -0.73869967 0.11095203 100
3.0949235 -0.73380607 0.11507013 100
3.1004581 -0.72891241 0.11918824 100
3.105993 -0.72401881 0.12330634 100
3.1115277 -0.71912515 0.12742445 100
3.1170623 -0.71423155 0.13154255 100
3.122597 -0.70933789 0.13566066 100
3.1281316 -0.70444423 0.13977876 100
3.1336663 -0.69955063 0.14389686 100
3.1392012 -0.69465697 0.14801498 100
3.1447358 -0.68976337 0.15213308 100
3.1502705 -0.68486971 0.15625118 100
3.1558051 -0.67997611 0.16036928 100
3.1613398 -0.67508245 0.16448739 100
3.205596 -0.51964128 0.19171804 100
3.2019751 -0.51279187 0.18853165 100
3.1983545 -0.50594246 0.18534525 100
3.1947336 -0.49909306 0.18215886 100
3.191113 -0.49224365 0.17897245 100
3.1874921 -0.48539424 0.17578606 100
3.1838715 -0.47854483 0.17259966 100
3.1802506 -0.47169542 0.16941327 100
3.17663 -0.46484601 0.16622688 100
3.1730092 -0.45799661 0.16304047 100
3.1693885 -0.4511472 0.15985408 100
3.1657679 -0.44429779 0.15666768 100
3.162147 -0.43744838 0.15348129 100
3.1585264 -0.43059897 0.15029489 100
3.1549056 -0.42374957 0.1471085 100
3.1512849 -0.41690016 0.14392209 100
3.1476641 -0.41005075 0.1407357 100
3.1440434 -0.40320134 0.1375493 100
3.1404226 -0.39635193 0.13436291 100
3.136802 -0.3895025 0.1311765 100
3.1331811 -0.38265309 0.12799011 100
3.1295605 -0.37580368 0.12480371 100
3.1259396 -0.36895427 0.12161731 100
3.122319 -0.36210486 0.11843091 100
3.1186981 -0.35525545 0.11524452 100
3.1150775 -0.34840605 0.11205812 100
3.1114569 -0.34155664 0.10887172 100
3.107836 -0.33470723 0.10568533 100
3.1042154 -0.32785782 0.10249894 100
3.1005945 -0.32100841 0.099312544 100
3.0969739 -0.31415904 0.096126154 100
3.093353 -0.30730963 0.092939757 100
3.0897324 -0.30046022 0.089753367 100
3.0861115 -0.29361081 0.08656697 100
3.0824909 -0.2867614 0.08338058 100
3.0788701 -0.27991202 0.080194183 100
3.0752494 -0.27306262 0.077007793 100
3.0716288 -0.26621321 0.073821396 100
3.0680079 -0.2593638 0.070635006 100
3.0643873 -0.25251439 0.067448616 100
3.0607665 -0.245665 0.064262219 100
3.0571458 -0.23881561 0.061075825 100
3.053525 -0.2319662 0.057889432 100
3.0499043 -0.2251168 0.054703042 100
3.0462835 -0.2182674 0.051516648 100
3.0426629 -0.21141799 0.048330255 100
3.0390422 -0.20456859 0.045143861 100
3.0354214 -0.19771919 0.041957468 100
3.0318007 -0.19086979 0.038771074 100
3.0281799 -0.18402039 0.035584681 100
3.1980853 -0.59519577 0.28555849 100
3.1927462 -0.59479499 0.29171401 100
3.187407 -0.59439421 0.2978695 100
3.1820679 -0.59399337 0.30402499 100
3.176729 -0.59359258 0.31018049 100
3.1713898 -0.5931918 0.31633601 100
3.1660507 -0.59279096 0.3224915 100
3.1607115 -0.59239018 0.32864699 100
3.1553724 -0.59198934 0.33480248 100
3.1500335 -0.59158856 0.340958 100
3.1446943 -0.59118778 0.34711349 100
3.1393552 -0.59078693 0.35326898 100
3.134016 -0.59038615 0.35942447 100
3.1286771 -0.58998537 0.36557999 100
3.123338 -0.58958453 0.37173548 100
3.1179988 -0.58918375 0.37789097 100
3.1126597 -0.58878297 0.38404649 100
3.1073205 -0.58838212 0.39020199 100
3.1019816 -0.58798134 0.39635751 100
3.0966425 -0.5875805 0.402513 100
3.0913033 -0.58717972 0.40866849 100
3.0859642 -0.58677894 0.41482401 100
3.0806251 -0.5863781 0.4209795 100
3.0752861 -0.58597732 0.42713499 100
3.069947 -0.58557653 0.43329051 100
3.0646079 -0.58517569 0.439446 100
3.0592687 -0.58477491 0.44560149 100
3.0539298 -0.58437413 0.45175698 100
3.0485907 -0.58397329 0.45791247 100
3.0432515 -0.58357251 0.46406797 100
3.0379124 -0.58317173 0.47022346 100
3.0325732 -0.58277088 0.47637895 100
3.0272343 -0.5823701 0.48253447 100
3.0218952 -0.58196926 0.48868996 100
3.016556 -0.58156848 0.49484545 100
3.0112169 -0.5811677 0.50100094 100
3.005878 -0.58076686 0.50715643 100
3.0005388 -0.58036608 0.51331192 100
2.9951997 -0.57996529 0.51946741 100
2.9898605 -0.57956445 0.5256229 100
2.9845216 -0.57916367 0.5317784 100
2.9791825 -0.57876289 0.53793389 100
2.9738433 -0.57836205 0.54408938 100
2.9685042 -0.57796127 0.55024487 100
