# .PCD v0.7 - Point Cloud Data file format
VERSION 0.7
FIELDS x y z rgb
SIZE 4 4 4 4
TYPE F F F U
COUNT 1 1 1 1
WIDTH 1108
HEIGHT 1
VIEWPOINT 0 0 0 1 0 0 0
POINTS 1108
DATA ascii
-23.08956 7.4952955 -2.9112151 4278190335
-23.099485 7.4952955 -2.9112151 4278190335
-23.109411 7.4952955 -2.9112151 4278190335
-23.119337 7.4952955 -2.9112151 4278190335
-23.129263 7.4952955 -2.9112151 4278190335
-23.139191 7.4952955 -2.9112151 4278190335
-23.149117 7.4952955 -2.9112151 4278190335
-23.159042 7.4952955 -2.9112151 4278190335
-23.168968 7.4952955 -2.9112151 4278190335
-23.178894 7.4952955 -2.9112151 4278190335
-23.18882 7.4952955 -2.9112151 4278190335
-23.198746 7.4952955 -2.9112151 4278190335
-23.208672 7.4952955 -2.9112151 4278190335
-23.218597 7.4952955 -2.9112151 4278190335
-23.228523 7.4952955 -2.9112151 4278190335
-23.238449 7.4952955 -2.9112151 4278190335
-23.248375 7.4952955 -2.9112151 4278190335
-23.258301 7.4952955 -2.9112151 4278190335
-23.268227 7.4952955 -2.9112151 4278190335
-23.278152 7.4952955 -2.9112151 4278190335
-23.288078 7.4952955 -2.9112151 4278190335
-23.298004 7.4952955 -2.9112151 4278190335
-23.30793 7.4952955 -2.9112151 4278190335
-23.317858 7.4952955 -2.9112151 4278190335
-23.327784 7.4952955 -2.9112151 4278190335
-23.337709 7.4952955 -2.9112151 4278190335
-23.347635 7.4952955 -2.9112151 4278190335
-23.357561 7.4952955 -2.9112151 4278190335
-23.367487 7.4952955 -2.9112151 4278190335
-23.377413 7.4952955 -2.9112151 4278190335
-23.387339 7.4952955 -2.9112151 4278190335
-23.397264 7.4952955 -2.9112151 4278190335
-23.397264 7.4952955 -2.9112151 4278190335
-23.397264 7.485383 -2.9112151 4278190335
-23.397264 7.4754701 -2.9112151 4278190335
-23.397264 7.4655576 -2.9112151 4278190335
-23.397264 7.4556446 -2.9112151 4278190335
-23.397264 7.4457321 -2.9112151 4278190335
-23.397264 7.4358191 -2.9112151 4278190335
-23.397264 7.4259067 -2.9112151 4278190335
-23.397264 7.4159937 -2.9112151 4278190335
-23.397264 7.4060812 -2.9112151 4278190335
-23.397264 7.3961687 -2.9112151 4278190335
-23.397264 7.3862557 -2.9112151 4278190335
-23.397264 7.3763433 -2.9112151 4278190335
-23.397264 7.3664303 -2.9112151 4278190335
-23.397264 7.3565178 -2.9112151 4278190335
-23.397264 7.3466048 -2.9112151 4278190335
-23.397264 7.3366923 -2.9112151 4278190335
-23.397264 7.3267794 -2.9112151 4278190335
-23.397264 7.3168669 -2.9112151 4278190335
-23.397264 7.3069544 -2.9112151 4278190335
-23.397264 7.2970414 -2.9112151 4278190335
-23.397264 7.2871289 -2.9112151 4278190335
-23.397264 7.277216 -2.9112151 4278190335
-23.397264 7.2673035 -2.9112151 4278190335
-23.397264 7.2573905 -2.9112151 4278190335
-23.397264 7.247478 -2.9112151 4278190335
-23.397264 7.237565 -2.9112151 4278190335
-23.397264 7.2276525 -2.9112151 4278190335
-23.397264 7.2177401 -2.9112151 4278190335
-23.397264 7.2078271 -2.9112151 4278190335
-23.397264 7.1979146 -2.9112151 4278190335
-23.397264 7.1880016 -2.9112151 4278190335
-23.397264 7.1780891 -2.9112151 4278190335
-23.397264 7.1681762 -2.9112151 4278190335
-23.397264 7.1582637 -2.9112151 4278190335
-23.397264 7.1483512 -2.9112151 4278190335
-23.397264 7.1384382 -2.9112151 4278190335
-23.397264 7.1285257 -2.9112151 4278190335
-23.397264 7.1186128 -2.9112151 4278190335
-23.397264 7.1087003 -2.9112151 4278190335
-23.397264 7.0987873 -2.9112151 4278190335
-23.397264 7.0888748 -2.9112151 4278190335
-23.397264 7.0789618 -2.9112151 4278190335
-23.397264 7.0690494 -2.9112151 4278190335
-23.397264 7.0591369 -2.9112151 4278190335
-23.397264 7.0492239 -2.9112151 4278190335
-23.397264 7.0393114 -2.9112151 4278190335
-23.397264 7.0293984 -2.9112151 4278190335
-23.397264 7.019486 -2.9112151 4278190335
-23.397264 7.009573 -2.9112151 4278190335
-23.397264 6.9996605 -2.9112151 4278190335
-23.397264 6.9897475 -2.9112151 4278190335
-23.397264 6.979835 -2.9112151 4278190335
-23.397264 6.9699225 -2.9112151 4278190335
-23.397264 6.9600096 -2.9112151 4278190335
-23.397264 6.9500971 -2.9112151 4278190335
-23.397264 6.9401841 -2.9112151 4278190335
-23.397264 6.9302716 -2.9112151 4278190335
-23.397264 6.9203587 -2.9112151 4278190335
-23.397264 6.9104462 -2.9112151 4278190335
-23.397264 6.9005332 -2.9112151 4278190335
-23.397264 6.8906207 -2.9112151 4278190335
-23.397264 6.8906207 -2.9948175 4278190335
-23.397264 6.8906207 -2.9855282 4278190335
-23.397264 6.8906207 -2.9762392 4278190335
-23.397264 6.8906207 -2.9669499 4278190335
-23.397264 6.8906207 -2.9576609 4278190335
-23.397264 6.8906207 -2.9483716 4278190335
-23.397264 6.8906207 -2.9390826 4278190335
-23.397264 6.8906207 -2.9297934 4278190335
-23.397264 6.8906207 -2.9205043 4278190335
-23.397264 6.8906207 -2.9112151 4278190335
-22.523781 6.8906207 -2.9948175 4278190335
-22.523781 6.8906207 -2.9855282 4278190335
-22.523781 6.8906207 -2.9762392 4278190335
-22.523781 6.8906207 -2.9669499 4278190335
-22.523781 6.8906207 -2.9576609 4278190335
-22.523781 6.8906207 -2.9483716 4278190335
-22.523781 6.8906207 -2.9390826 4278190335
-22.523781 6.8906207 -2.9297934 4278190335
-22.523781 6.8906207 -2.9205043 4278190335
-22.523781 6.8906207 -2.9112151 4278190335
-23.397264 7.4952955 -2.9948175 4278190335
-23.397264 7.4952955 -2.9855282 4278190335
-23.397264 7.4952955 -2.9762392 4278190335
-23.397264 7.4952955 -2.9669499 4278190335
-23.397264 7.4952955 -2.9576609 4278190335
-23.397264 7.4952955 -2.9483716 4278190335
-23.397264 7.4952955 -2.9390826 4278190335
-23.397264 7.4952955 -2.9297934 4278190335
-23.397264 7.4952955 -2.9205043 4278190335
-23.397264 7.4952955 -2.9112151 4278190335
-22.523781 7.4952955 -2.9948175 4278190335
-22.523781 7.4952955 -2.9855282 4278190335
-22.523781 7.4952955 -2.9762392 4278190335
-22.523781 7.4952955 -2.9669499 4278190335
-22.523781 7.4952955 -2.9576609 4278190335
-22.523781 7.4952955 -2.9483716 4278190335
-22.523781 7.4952955 -2.9390826 4278190335
-22.523781 7.4952955 -2.9297934 4278190335
-22.523781 7.4952955 -2.9205043 4278190335
-22.523781 7.4952955 -2.9112151 4278190335
-20.942514 9.7567577 -2.0213161 4289178052
-20.917349 9.8340349 -2.0221875 4289178052
-20.942358 9.9396849 -2.0281141 4289178052
-20.884176 10.001536 -2.0258482 4289178052
-20.822151 10.052372 -2.0228848 4289178052
-20.786934 10.124994 -2.0228848 4289178052
-20.801533 10.222096 -2.0277655 4289178052
-20.730024 10.276947 -2.0242794 4289178052
-20.701153 10.352806 -2.0249765 4289178052
-20.75205 10.468975 -2.0335178 4289178052
-20.720772 10.539541 -2.0338664 4289178052
-20.942514 9.7567577 -2.0338664 4278190335
-20.932859 9.7567577 -2.0338664 4278190335
-20.923206 9.7567577 -2.0338664 4278190335
-20.913551 9.7567577 -2.0338664 4278190335
-20.903896 9.7567577 -2.0338664 4278190335
-20.894241 9.7567577 -2.0338664 4278190335
-20.884588 9.7567577 -2.0338664 4278190335
-20.874933 9.7567577 -2.0338664 4278190335
-20.865278 9.7567577 -2.0338664 4278190335
-20.855625 9.7567577 -2.0338664 4278190335
-20.84597 9.7567577 -2.0338664 4278190335
-20.836315 9.7567577 -2.0338664 4278190335
-20.82666 9.7567577 -2.0338664 4278190335
-20.817007 9.7567577 -2.0338664 4278190335
-20.807352 9.7567577 -2.0338664 4278190335
-20.797697 9.7567577 -2.0338664 4278190335
-20.788042 9.7567577 -2.0338664 4278190335
-20.778389 9.7567577 -2.0338664 4278190335
-20.768734 9.7567577 -2.0338664 4278190335
-20.759079 9.7567577 -2.0338664 4278190335
-20.749426 9.7567577 -2.0338664 4278190335
-20.739771 9.7567577 -2.0338664 4278190335
-20.730116 9.7567577 -2.0338664 4278190335
-20.720461 9.7567577 -2.0338664 4278190335
-20.710808 9.7567577 -2.0338664 4278190335
-20.701153 9.7567577 -2.0338664 4278190335
-20.701153 9.7567577 -2.0338664 4278190335
-20.701153 9.7666664 -2.0338664 4278190335
-20.701153 9.7765751 -2.0338664 4278190335
-20.701153 9.7864838 -2.0338664 4278190335
-20.701153 9.7963924 -2.0338664 4278190335
-20.701153 9.8063011 -2.0338664 4278190335
-20.701153 9.8162098 -2.0338664 4278190335
-20.701153 9.8261185 -2.0338664 4278190335
-20.701153 9.8360271 -2.0338664 4278190335
-20.701153 9.8459358 -2.0338664 4278190335
-20.701153 9.8558445 -2.0338664 4278190335
-20.701153 9.8657532 -2.0338664 4278190335
-20.701153 9.8756618 -2.0338664 4278190335
-20.701153 9.8855705 -2.0338664 4278190335
-20.701153 9.8954792 -2.0338664 4278190335
-20.701153 9.9053879 -2.0338664 4278190335
-20.701153 9.9152966 -2.0338664 4278190335
-20.701153 9.9252052 -2.0338664 4278190335
-20.701153 9.9351139 -2.0338664 4278190335
-20.701153 9.9450226 -2.0338664 4278190335
-20.701153 9.9549313 -2.0338664 4278190335
-20.701153 9.964839 -2.0338664 4278190335
-20.701153 9.9747477 -2.0338664 4278190335
-20.701153 9.9846563 -2.0338664 4278190335
-20.701153 9.994565 -2.0338664 4278190335
-20.701153 10.004474 -2.0338664 4278190335
-20.701153 10.014382 -2.0338664 4278190335
-20.701153 10.024291 -2.0338664 4278190335
-20.701153 10.0342 -2.0338664 4278190335
-20.701153 10.044108 -2.0338664 4278190335
-20.701153 10.054017 -2.0338664 4278190335
-20.701153 10.063926 -2.0338664 4278190335
-20.701153 10.073834 -2.0338664 4278190335
-20.701153 10.083743 -2.0338664 4278190335
-20.701153 10.093652 -2.0338664 4278190335
-20.701153 10.10356 -2.0338664 4278190335
-20.701153 10.113469 -2.0338664 4278190335
-20.701153 10.123378 -2.0338664 4278190335
-20.701153 10.133286 -2.0338664 4278190335
-20.701153 10.143195 -2.0338664 4278190335
-20.701153 10.153104 -2.0338664 4278190335
-20.701153 10.163013 -2.0338664 4278190335
-20.701153 10.172921 -2.0338664 4278190335
-20.701153 10.18283 -2.0338664 4278190335
-20.701153 10.192739 -2.0338664 4278190335
-20.701153 10.202647 -2.0338664 4278190335
-20.701153 10.212556 -2.0338664 4278190335
-20.701153 10.222465 -2.0338664 4278190335
-20.701153 10.232373 -2.0338664 4278190335
-20.701153 10.242282 -2.0338664 4278190335
-20.701153 10.252191 -2.0338664 4278190335
-20.701153 10.262099 -2.0338664 4278190335
-20.701153 10.272008 -2.0338664 4278190335
-20.701153 10.281917 -2.0338664 4278190335
-20.701153 10.291825 -2.0338664 4278190335
-20.701153 10.301734 -2.0338664 4278190335
-20.701153 10.311643 -2.0338664 4278190335
-20.701153 10.321551 -2.0338664 4278190335
-20.701153 10.33146 -2.0338664 4278190335
-20.701153 10.341368 -2.0338664 4278190335
-20.701153 10.351276 -2.0338664 4278190335
-20.701153 10.361185 -2.0338664 4278190335
-20.701153 10.371094 -2.0338664 4278190335
-20.701153 10.381002 -2.0338664 4278190335
-20.701153 10.390911 -2.0338664 4278190335
-20.701153 10.40082 -2.0338664 4278190335
-20.701153 10.410728 -2.0338664 4278190335
-20.701153 10.420637 -2.0338664 4278190335
-20.701153 10.430546 -2.0338664 4278190335
-20.701153 10.440454 -2.0338664 4278190335
-20.701153 10.450363 -2.0338664 4278190335
-20.701153 10.460272 -2.0338664 4278190335
-20.701153 10.470181 -2.0338664 4278190335
-20.701153 10.480089 -2.0338664 4278190335
-20.701153 10.489998 -2.0338664 4278190335
-20.701153 10.499907 -2.0338664 4278190335
-20.701153 10.509815 -2.0338664 4278190335
-20.701153 10.519724 -2.0338664 4278190335
-20.701153 10.529633 -2.0338664 4278190335
-20.701153 10.539541 -2.0338664 4278190335
-20.701153 10.539541 -2.0338664 4278190335
-20.710808 10.539541 -2.0338664 4278190335
-20.720461 10.539541 -2.0338664 4278190335
-20.730116 10.539541 -2.0338664 4278190335
-20.739771 10.539541 -2.0338664 4278190335
-20.749426 10.539541 -2.0338664 4278190335
-20.759079 10.539541 -2.0338664 4278190335
-20.768734 10.539541 -2.0338664 4278190335
-20.778389 10.539541 -2.0338664 4278190335
-20.788042 10.539541 -2.0338664 4278190335
-20.797697 10.539541 -2.0338664 4278190335
-20.807352 10.539541 -2.0338664 4278190335
-20.817007 10.539541 -2.0338664 4278190335
-20.82666 10.539541 -2.0338664 4278190335
-20.836315 10.539541 -2.0338664 4278190335
-20.84597 10.539541 -2.0338664 4278190335
-20.855625 10.539541 -2.0338664 4278190335
-20.865278 10.539541 -2.0338664 4278190335
-20.874933 10.539541 -2.0338664 4278190335
-20.884588 10.539541 -2.0338664 4278190335
-20.894241 10.539541 -2.0338664 4278190335
-20.903896 10.539541 -2.0338664 4278190335
-20.913551 10.539541 -2.0338664 4278190335
-20.923206 10.539541 -2.0338664 4278190335
-20.932859 10.539541 -2.0338664 4278190335
-20.942514 10.539541 -2.0338664 4278190335
-20.942514 10.539541 -2.0338664 4278190335
-20.942514 10.529633 -2.0338664 4278190335
-20.942514 10.519724 -2.0338664 4278190335
-20.942514 10.509815 -2.0338664 4278190335
-20.942514 10.499907 -2.0338664 4278190335
-20.942514 10.489998 -2.0338664 4278190335
-20.942514 10.480089 -2.0338664 4278190335
-20.942514 10.470181 -2.0338664 4278190335
-20.942514 10.460272 -2.0338664 4278190335
-20.942514 10.450363 -2.0338664 4278190335
-20.942514 10.440454 -2.0338664 4278190335
-20.942514 10.430546 -2.0338664 4278190335
-20.942514 10.420637 -2.0338664 4278190335
-20.942514 10.410728 -2.0338664 4278190335
-20.942514 10.40082 -2.0338664 4278190335
-20.942514 10.390911 -2.0338664 4278190335
-20.942514 10.381002 -2.0338664 4278190335
-20.942514 10.371094 -2.0338664 4278190335
-20.942514 10.361185 -2.0338664 4278190335
-20.942514 10.351276 -2.0338664 4278190335
-20.942514 10.341368 -2.0338664 4278190335
-20.942514 10.33146 -2.0338664 4278190335
-20.942514 10.321551 -2.0338664 4278190335
-20.942514 10.311643 -2.0338664 4278190335
-20.942514 10.301734 -2.0338664 4278190335
-20.942514 10.291825 -2.0338664 4278190335
-20.942514 10.281917 -2.0338664 4278190335
-20.942514 10.272008 -2.0338664 4278190335
-20.942514 10.262099 -2.0338664 4278190335
-20.942514 10.252191 -2.0338664 4278190335
-20.942514 10.242282 -2.0338664 4278190335
-20.942514 10.232373 -2.0338664 4278190335
-20.942514 10.222465 -2.0338664 4278190335
-20.942514 10.212556 -2.0338664 4278190335
-20.942514 10.202647 -2.0338664 4278190335
-20.942514 10.192739 -2.0338664 4278190335
-20.942514 10.18283 -2.0338664 4278190335
-20.942514 10.172921 -2.0338664 4278190335
-20.942514 10.163013 -2.0338664 4278190335
-20.942514 10.153104 -2.0338664 4278190335
-20.942514 10.143195 -2.0338664 4278190335
-20.942514 10.133286 -2.0338664 4278190335
-20.942514 10.123378 -2.0338664 4278190335
-20.942514 10.113469 -2.0338664 4278190335
-20.942514 10.10356 -2.0338664 4278190335
-20.942514 10.093652 -2.0338664 4278190335
-20.942514 10.083743 -2.0338664 4278190335
-20.942514 10.073834 -2.0338664 4278190335
-20.942514 10.063926 -2.0338664 4278190335
-20.942514 10.054017 -2.0338664 4278190335
-20.942514 10.044108 -2.0338664 4278190335
-20.942514 10.0342 -2.0338664 4278190335
-20.942514 10.024291 -2.0338664 4278190335
-20.942514 10.014382 -2.0338664 4278190335
-20.942514 10.004474 -2.0338664 4278190335
-20.942514 9.994565 -2.0338664 4278190335
-20.942514 9.9846563 -2.0338664 4278190335
-20.942514 9.9747477 -2.0338664 4278190335
-20.942514 9.964839 -2.0338664 4278190335
-20.942514 9.9549313 -2.0338664 4278190335
-20.942514 9.9450226 -2.0338664 4278190335
-20.942514 9.9351139 -2.0338664 4278190335
-20.942514 9.9252052 -2.0338664 4278190335
-20.942514 9.9152966 -2.0338664 4278190335
-20.942514 9.9053879 -2.0338664 4278190335
-20.942514 9.8954792 -2.0338664 4278190335
-20.942514 9.8855705 -2.0338664 4278190335
-20.942514 9.8756618 -2.0338664 4278190335
-20.942514 9.8657532 -2.0338664 4278190335
-20.942514 9.8558445 -2.0338664 4278190335
-20.942514 9.8459358 -2.0338664 4278190335
-20.942514 9.8360271 -2.0338664 4278190335
-20.942514 9.8261185 -2.0338664 4278190335
-20.942514 9.8162098 -2.0338664 4278190335
-20.942514 9.8063011 -2.0338664 4278190335
-20.942514 9.7963924 -2.0338664 4278190335
-20.942514 9.7864838 -2.0338664 4278190335
-20.942514 9.7765751 -2.0338664 4278190335
-20.942514 9.7666664 -2.0338664 4278190335
-20.942514 9.7567577 -2.0338664 4278190335
-20.942514 9.7567577 -2.0213161 4278190335
-20.932859 9.7567577 -2.0213161 4278190335
-20.923206 9.7567577 -2.0213161 4278190335
-20.913551 9.7567577 -2.0213161 4278190335
-20.903896 9.7567577 -2.0213161 4278190335
-20.894241 9.7567577 -2.0213161 4278190335
-20.884588 9.7567577 -2.0213161 4278190335
-20.874933 9.7567577 -2.0213161 4278190335
-20.865278 9.7567577 -2.0213161 4278190335
-20.855625 9.7567577 -2.0213161 4278190335
-20.84597 9.7567577 -2.0213161 4278190335
-20.836315 9.7567577 -2.0213161 4278190335
-20.82666 9.7567577 -2.0213161 4278190335
-20.817007 9.7567577 -2.0213161 4278190335
-20.807352 9.7567577 -2.0213161 4278190335
-20.797697 9.7567577 -2.0213161 4278190335
-20.788042 9.7567577 -2.0213161 4278190335
-20.778389 9.7567577 -2.0213161 4278190335
-20.768734 9.7567577 -2.0213161 4278190335
-20.759079 9.7567577 -2.0213161 4278190335
-20.749426 9.7567577 -2.0213161 4278190335
-20.739771 9.7567577 -2.0213161 4278190335
-20.730116 9.7567577 -2.0213161 4278190335
-20.720461 9.7567577 -2.0213161 4278190335
-20.710808 9.7567577 -2.0213161 4278190335
-20.701153 9.7567577 -2.0213161 4278190335
-20.701153 9.7567577 -2.0213161 4278190335
-20.701153 9.7666664 -2.0213161 4278190335
-20.701153 9.7765751 -2.0213161 4278190335
-20.701153 9.7864838 -2.0213161 4278190335
-20.701153 9.7963924 -2.0213161 4278190335
-20.701153 9.8063011 -2.0213161 4278190335
-20.701153 9.8162098 -2.0213161 4278190335
-20.701153 9.8261185 -2.0213161 4278190335
-20.701153 9.8360271 -2.0213161 4278190335
-20.701153 9.8459358 -2.0213161 4278190335
-20.701153 9.8558445 -2.0213161 4278190335
-20.701153 9.8657532 -2.0213161 4278190335
-20.701153 9.8756618 -2.0213161 4278190335
-20.701153 9.8855705 -2.0213161 4278190335
-20.701153 9.8954792 -2.0213161 4278190335
-20.701153 9.9053879 -2.0213161 4278190335
-20.701153 9.9152966 -2.0213161 4278190335
-20.701153 9.9252052 -2.0213161 4278190335
-20.701153 9.9351139 -2.0213161 4278190335
-20.701153 9.9450226 -2.0213161 4278190335
-20.701153 9.9549313 -2.0213161 4278190335
-20.701153 9.964839 -2.0213161 4278190335
-20.701153 9.9747477 -2.0213161 4278190335
-20.701153 9.9846563 -2.0213161 4278190335
-20.701153 9.994565 -2.0213161 4278190335
-20.701153 10.004474 -2.0213161 4278190335
-20.701153 10.014382 -2.0213161 4278190335
-20.701153 10.024291 -2.0213161 4278190335
-20.701153 10.0342 -2.0213161 4278190335
-20.701153 10.044108 -2.0213161 4278190335
-20.701153 10.054017 -2.0213161 4278190335
-20.701153 10.063926 -2.0213161 4278190335
-20.701153 10.073834 -2.0213161 4278190335
-20.701153 10.083743 -2.0213161 4278190335
-20.701153 10.093652 -2.0213161 4278190335
-20.701153 10.10356 -2.0213161 4278190335
-20.701153 10.113469 -2.0213161 4278190335
-20.701153 10.123378 -2.0213161 4278190335
-20.701153 10.133286 -2.0213161 4278190335
-20.701153 10.143195 -2.0213161 4278190335
-20.701153 10.153104 -2.0213161 4278190335
-20.701153 10.163013 -2.0213161 4278190335
-20.701153 10.172921 -2.0213161 4278190335
-20.701153 10.18283 -2.0213161 4278190335
-20.701153 10.192739 -2.0213161 4278190335
-20.701153 10.202647 -2.0213161 4278190335
-20.701153 10.212556 -2.0213161 4278190335
-20.701153 10.222465 -2.0213161 4278190335
-20.701153 10.232373 -2.0213161 4278190335
-20.701153 10.242282 -2.0213161 4278190335
-20.701153 10.252191 -2.0213161 4278190335
-20.701153 10.262099 -2.0213161 4278190335
-20.701153 10.272008 -2.0213161 4278190335
-20.701153 10.281917 -2.0213161 4278190335
-20.701153 10.291825 -2.0213161 4278190335
-20.701153 10.301734 -2.0213161 4278190335
-20.701153 10.311643 -2.0213161 4278190335
-20.701153 10.321551 -2.0213161 4278190335
-20.701153 10.33146 -2.0213161 4278190335
-20.701153 10.341368 -2.0213161 4278190335
-20.701153 10.351276 -2.0213161 4278190335
-20.701153 10.361185 -2.0213161 4278190335
-20.701153 10.371094 -2.0213161 4278190335
-20.701153 10.381002 -2.0213161 4278190335
-20.701153 10.390911 -2.0213161 4278190335
-20.701153 10.40082 -2.0213161 4278190335
-20.701153 10.410728 -2.0213161 4278190335
-20.701153 10.420637 -2.0213161 4278190335
-20.701153 10.430546 -2.0213161 4278190335
-20.701153 10.440454 -2.0213161 4278190335
-20.701153 10.450363 -2.0213161 4278190335
-20.701153 10.460272 -2.0213161 4278190335
-20.701153 10.470181 -2.0213161 4278190335
-20.701153 10.480089 -2.0213161 4278190335
-20.701153 10.489998 -2.0213161 4278190335
-20.701153 10.499907 -2.0213161 4278190335
-20.701153 10.509815 -2.0213161 4278190335
-20.701153 10.519724 -2.0213161 4278190335
-20.701153 10.529633 -2.0213161 4278190335
-20.701153 10.539541 -2.0213161 4278190335
-20.701153 10.539541 -2.0213161 4278190335
-20.710808 10.539541 -2.0213161 4278190335
-20.720461 10.539541 -2.0213161 4278190335
-20.730116 10.539541 -2.0213161 4278190335
-20.739771 10.539541 -2.0213161 4278190335
-20.749426 10.539541 -2.0213161 4278190335
-20.759079 10.539541 -2.0213161 4278190335
-20.768734 10.539541 -2.0213161 4278190335
-20.778389 10.539541 -2.0213161 4278190335
-20.788042 10.539541 -2.0213161 4278190335
-20.797697 10.539541 -2.0213161 4278190335
-20.807352 10.539541 -2.0213161 4278190335
-20.817007 10.539541 -2.0213161 4278190335
-20.82666 10.539541 -2.0213161 4278190335
-20.836315 10.539541 -2.0213161 4278190335
-20.84597 10.539541 -2.0213161 4278190335
-20.855625 10.539541 -2.0213161 4278190335
-20.865278 10.539541 -2.0213161 4278190335
-20.874933 10.539541 -2.0213161 4278190335
-20.884588 10.539541 -2.0213161 4278190335
-20.894241 10.539541 -2.0213161 4278190335
-20.903896 10.539541 -2.0213161 4278190335
-20.913551 10.539541 -2.0213161 4278190335
-20.923206 10.539541 -2.0213161 4278190335
-20.932859 10.539541 -2.0213161 4278190335
-20.942514 10.539541 -2.0213161 4278190335
-20.942514 10.539541 -2.0213161 4278190335
-20.942514 10.529633 -2.0213161 4278190335
-20.942514 10.519724 -2.0213161 4278190335
-20.942514 10.509815 -2.0213161 4278190335
-20.942514 10.499907 -2.0213161 4278190335
-20.942514 10.489998 -2.0213161 4278190335
-20.942514 10.480089 -2.0213161 4278190335
-20.942514 10.470181 -2.0213161 4278190335
-20.942514 10.460272 -2.0213161 4278190335
-20.942514 10.450363 -2.0213161 4278190335
-20.942514 10.440454 -2.0213161 4278190335
-20.942514 10.430546 -2.0213161 4278190335
-20.942514 10.420637 -2.0213161 4278190335
-20.942514 10.410728 -2.0213161 4278190335
-20.942514 10.40082 -2.0213161 4278190335
-20.942514 10.390911 -2.0213161 4278190335
-20.942514 10.381002 -2.0213161 4278190335
-20.942514 10.371094 -2.0213161 4278190335
-20.942514 10.361185 -2.0213161 4278190335
-20.942514 10.351276 -2.0213161 4278190335
-20.942514 10.341368 -2.0213161 4278190335
-20.942514 10.33146 -2.0213161 4278190335
-20.942514 10.321551 -2.0213161 4278190335
-20.942514 10.311643 -2.0213161 4278190335
-20.942514 10.301734 -2.0213161 4278190335
-20.942514 10.291825 -2.0213161 4278190335
-20.942514 10.281917 -2.0213161 4278190335
-20.942514 10.272008 -2.0213161 4278190335
-20.942514 10.262099 -2.0213161 4278190335
-20.942514 10.252191 -2.0213161 4278190335
-20.942514 10.242282 -2.0213161 4278190335
-20.942514 10.232373 -2.0213161 4278190335
-20.942514 10.222465 -2.0213161 4278190335
-20.942514 10.212556 -2.0213161 4278190335
-20.942514 10.202647 -2.0213161 4278190335
-20.942514 10.192739 -2.0213161 4278190335
-20.942514 10.18283 -2.0213161 4278190335
-20.942514 10.172921 -2.0213161 4278190335
-20.942514 10.163013 -2.0213161 4278190335
-20.942514 10.153104 -2.0213161 4278190335
-20.942514 10.143195 -2.0213161 4278190335
-20.942514 10.133286 -2.0213161 4278190335
-20.942514 10.123378 -2.0213161 4278190335
-20.942514 10.113469 -2.0213161 4278190335
-20.942514 10.10356 -2.0213161 4278190335
-20.942514 10.093652 -2.0213161 4278190335
-20.942514 10.083743 -2.0213161 4278190335
-20.942514 10.073834 -2.0213161 4278190335
-20.942514 10.063926 -2.0213161 4278190335
-20.942514 10.054017 -2.0213161 4278190335
-20.942514 10.044108 -2.0213161 4278190335
-20.942514 10.0342 -2.0213161 4278190335
-20.942514 10.024291 -2.0213161 4278190335
-20.942514 10.014382 -2.0213161 4278190335
-20.942514 10.004474 -2.0213161 4278190335
-20.942514 9.994565 -2.0213161 4278190335
-20.942514 9.9846563 -2.0213161 4278190335
-20.942514 9.9747477 -2.0213161 4278190335
-20.942514 9.964839 -2.0213161 4278190335
-20.942514 9.9549313 -2.0213161 4278190335
-20.942514 9.9450226 -2.0213161 4278190335
-20.942514 9.9351139 -2.0213161 4278190335
-20.942514 9.9252052 -2.0213161 4278190335
-20.942514 9.9152966 -2.0213161 4278190335
-20.942514 9.9053879 -2.0213161 4278190335
-20.942514 9.8954792 -2.0213161 4278190335
-20.942514 9.8855705 -2.0213161 4278190335
-20.942514 9.8756618 -2.0213161 4278190335
-20.942514 9.8657532 -2.0213161 4278190335
-20.942514 9.8558445 -2.0213161 4278190335
-20.942514 9.8459358 -2.0213161 4278190335
-20.942514 9.8360271 -2.0213161 4278190335
-20.942514 9.8261185 -2.0213161 4278190335
-20.942514 9.8162098 -2.0213161 4278190335
-20.942514 9.8063011 -2.0213161 4278190335
-20.942514 9.7963924 -2.0213161 4278190335
-20.942514 9.7864838 -2.0213161 4278190335
-20.942514 9.7765751 -2.0213161 4278190335
-20.942514 9.7666664 -2.0213161 4278190335
-20.942514 9.7567577 -2.0213161 4278190335
-20.942514 9.7567577 -2.0338664 4278190335
-20.942514 9.7567577 -2.0275912 4278190335
-20.942514 9.7567577 -2.0213161 4278190335
-20.701153 9.7567577 -2.0338664 4278190335
-20.701153 9.7567577 -2.0275912 4278190335
-20.701153 9.7567577 -2.0213161 4278190335
-20.942514 10.539541 -2.0338664 4278190335
-20.942514 10.539541 -2.0275912 4278190335
-20.942514 10.539541 -2.0213161 4278190335
-20.701153 10.539541 -2.0338664 4278190335
-20.701153 10.539541 -2.0275912 4278190335
-20.701153 10.539541 -2.0213161 4278190335
3.853828 -0.80300093 -0.20630836 4292917490
3.8470941 -0.81561995 -0.20609902 4292917490
3.8364141 -0.82735968 -0.20568034 4292917490
3.8393552 -0.84202981 -0.20599434 4292917490
3.8441901 -0.85716516 -0.20641303 4292917490
3.8372791 -0.86969572 -0.2062037 4292917490
3.8342199 -0.88308501 -0.2062037 4292917490
3.829169 -0.89600849 -0.20609902 4292917490
3.8357339 -0.91167861 -0.20662238 4292917490
3.8422356 -0.92740536 -0.20714574 4292917490
3.8292758 -0.9384346 -0.20662238 4292917490
3.818224 -0.94986689 -0.2062037 4292917490
3.8206942 -0.96465594 -0.2065177 4292917490
3.8134341 -0.97699535 -0.20630836 4292917490
3.8273981 -0.9948228 -0.20725042 4292917490
3.8335586 -1.0107226 -0.20777377 4292917490
3.8147492 -1.019305 -0.20693639 4292917490
3.8053846 -1.0310479 -0.20662238 4292917490
3.8169866 -1.0492234 -0.20745975 4292917490
3.819073 -1.0641491 -0.20777377 4292917490
3.8211012 -1.079102 -0.20808777 4292917490
3.8038697 -1.0885869 -0.20735508 4292917490
3.8019652 -1.1024146 -0.20745975 4292917490
3.8019266 -1.1168051 -0.20766909 4292917490
3.8096886 -1.1328222 -0.20829713 4292917490
3.7999737 -1.1443857 -0.20798311 4292917490
3.7978663 -1.1582255 -0.20808777 4292917490
3.7976172 -1.1726542 -0.20829713 4292917490
3.7935007 -1.1859031 -0.20829713 4292917490
3.8007629 -1.2027532 -0.20892516 4292917490
3.8022475 -1.2178407 -0.20923917 4292917490
3.7865739 -1.2274104 -0.20861115 4292917490
3.7782543 -1.2400351 -0.2084018 4292917490
3.7814848 -1.2557337 -0.20882049 4292917490
3.7901089 -1.27404 -0.20955318 4292917490
3.7877541 -1.287244 -0.20965785 4292917490
3.762687 -1.2926594 -0.20850646 4292917490
3.771358 -1.3103744 -0.20923917 4292917490
3.7761831 -1.3268414 -0.20976254 4292917490
3.7847023 -1.3446952 -0.21049525 4292917490
3.776226 -1.3565477 -0.21028589 4292917490
3.7677133 -1.3683573 -0.21007656 4292917490
3.7629139 -1.381501 -0.21007656 4292917490
3.7636857 -1.3967118 -0.21039055 4292917490
3.7643976 -1.4119455 -0.21070457 4292917490
3.7631812 -1.4264929 -0.21091393 4292917490
3.7544487 -1.4381913 -0.21070457 4292917490
3.7512686 -1.4520091 -0.21080926 4292917490
3.755477 -1.4687318 -0.2113326 4292917490
3.7503273 -1.4818318 -0.2113326 4292917490
3.7583785 -1.4994409 -0.21206531 4292917490
3.7420068 -1.5080717 -0.21143727 4292917490
3.7367198 -1.5211245 -0.21143727 4292917490
3.7406237 -1.5379564 -0.21196064 4292917490
3.7426105 -1.5540677 -0.21237932 4292917490
3.7408466 -1.5686671 -0.21258868 4292917490
3.7356241 -1.5810635 -0.21258868 4292917490
3.7245731 -1.5917393 -0.21227466 4292917490
3.7321117 -1.6096182 -0.21300736 4292917490
3.7368894 -1.6287247 -0.2136354 4292917490
3.7332959 -1.6419116 -0.21374007 4292917490
3.7184148 -1.6508813 -0.21321672 4292917490
3.72721 -1.6703852 -0.21405408 4292917490
3.7158973 -1.6809161 -0.21374007 4292917490
3.7284729 -1.7015212 -0.21478678 4292917490
3.7191815 -1.7122055 -0.21457745 4292917490
3.7146919 -1.7266673 -0.21468212 4292917490
3.7122588 -1.7413199 -0.21489146 4292917490
3.7172959 -1.7587454 -0.21551949 4292917490
3.7090225 -1.7714974 -0.21541482 4292917490
3.7132998 -1.7902844 -0.21604285 4292917490
3.6998439 -1.7997406 -0.21562417 4292917490
3.6971245 -1.8144041 -0.2158335 4292917490
3.701508 -1.8326157 -0.21646154 4292917490
3.7004485 -1.8482022 -0.21677555 4292917490
3.6993258 -1.863804 -0.21708956 4292917490
3.6874557 -1.873991 -0.21677555 4292917490
3.6880009 -1.8904955 -0.21719423 4292917490
3.6852605 -1.9045491 -0.21740359 4292917490
3.6877806 -1.9213735 -0.21792693 4292917490
3.6966248 -1.943241 -0.21886899 4292917490
3.6757021 -1.9486489 -0.21803163 4292917490
3.6650131 -1.960224 -0.21782227 4292917490
3.6725566 -1.9799491 -0.21865964 4292917490
3.6694806 -1.9940239 -0.21886899 4292917490
3.6800132 -2.0164185 -0.2199157 4292917490
3.6677077 -2.0263541 -0.21960169 4292917490
3.6623569 -2.0401165 -0.21970637 4292917490
3.6674032 -2.0597343 -0.22043908 4292917490
3.6671429 -2.0764599 -0.22085775 4292917490
3.6595078 -2.0898867 -0.22085775 4292917490
3.6591139 -2.1066339 -0.22127645 4292917490
3.6521077 -2.1187563 -0.22127645 4292917490
3.6481383 -2.1335082 -0.22148579 4292917490
3.6488955 -2.151938 -0.22200914 4292917490
3.6499457 -2.169765 -0.22253251 4292917490
3.6393037 -2.1798041 -0.22232316 4292917490
3.6350923 -2.1945589 -0.22253251 4292917490
3.6338484 -2.2120214 -0.2229512 4292917490
3.6312125 -2.2278256 -0.22326522 4292917490
3.62851 -2.2436388 -0.22357923 4292917490
3.6206563 -2.2562909 -0.22357923 4292917490
3.614449 -2.269978 -0.22368389 4292917490
3.6233802 -2.293262 -0.22473061 4292917490
3.6191237 -2.3074124 -0.22493997 4292917490
3.6261699 -2.3297474 -0.22588199 4292917490
3.6083641 -2.3352487 -0.22525398 4292917490
3.6073225 -2.3551741 -0.22577733 4292917490
3.6078365 -2.3726106 -0.2263007 4292917490
3.6099396 -2.3911796 -0.22692874 4292917490
3.6094561 -2.4099393 -0.22745208 4292917490
3.5977077 -2.4202945 -0.22724274 4292917490
3.596276 -2.436693 -0.22766145 4292917490
3.5860982 -2.4481053 -0.22755675 4292917490
3.5989242 -2.4753222 -0.22891749 4292917490
3.5902619 -2.4878695 -0.22891749 4292917490
3.5860312 -2.5044425 -0.22923151 4292917490
3.5756338 -2.5157959 -0.22912684 4292917490
3.5884566 -2.54265 -0.23048759 4292917490
3.5828104 -2.5574813 -0.2306969 4292917490
3.5831409 -2.5775936 -0.23132494 4292917490
3.5708871 -2.5877421 -0.23111561 4292917490
3.5634456 -2.6013682 -0.23122028 4292917490
3.5656068 -2.6220739 -0.23195298 4292917490
3.574086 -2.6475816 -0.23310436 4292917490
3.5696244 -2.6636245 -0.23341838 4292917490
3.5650945 -2.6796687 -0.2337324 4292917490
3.5557189 -2.6920972 -0.2337324 4292917490
3.5563025 -2.7111387 -0.23436043 4292917490
3.5647197 -2.7362943 -0.23551181 4292917490
3.5572069 -2.7493219 -0.23561651 4292917490
3.5466242 -2.7629604 -0.23561651 4292917490
3.5443287 -2.7821064 -0.23613985 4292917490
3.5408628 -2.7994161 -0.23655853 4292917490
3.5310693 -2.8117592 -0.23655853 4292917490
3.54772 -2.8453109 -0.23833798 4292917490
3.5351574 -2.8545506 -0.23812862 4292917490
3.5282707 -2.8693933 -0.23833798 4292917490
3.5316343 -2.8936985 -0.23928 4292917490
3.5322952 -2.9149072 -0.24001274 4292917490
3.5282428 -2.9323256 -0.24043141 4292917490
3.5179856 -2.9446237 -0.24043141 4292917490
3.5127835 -2.9601345 -0.24074543 4292917490
3.5100429 -2.9788401 -0.24126878 4292917490
3.509728 -3.0007701 -0.24200147 4292917490
3.5098264 -3.0221257 -0.24273418 4292917490
3.494729 -3.0304339 -0.24242018 4292917490
3.4961646 -3.0531237 -0.24325755 4292917490
3.4929845 -3.0719035 -0.2437809 4292917490
3.4971924 -3.0973203 -0.24482764 4292917490
3.499774 -3.1214736 -0.24576966 4292917490
3.4814272 -3.1269979 -0.24524632 4292917490
3.4799273 -3.1465626 -0.24587436 4292917490
3.4733527 -3.1627247 -0.24618836 4292917490
3.4775691 -3.1877215 -0.24723509 4292917490
3.4776008 -3.2112856 -0.24807246 4292917490
3.4614201 -3.219929 -0.24775843 4292917490
3.4603629 -3.2415502 -0.24849114 4292917490
3.4606495 -3.2645736 -0.24932852 4292917490
3.4593687 -3.2862623 -0.25006124 4292917490
3.454226 -3.3032374 -0.25047991 4292917490
3.4469905 -3.3194313 -0.25079393 4292917490
3.4396842 -3.3356147 -0.25110796 4292917490
3.4380219 -3.3573692 -0.25184065 4292917490
3.4334018 -3.3763511 -0.25236401 4292917490
3.4329488 -3.3995583 -0.2532014 4292917490
3.4295466 -3.4199827 -0.25382942 4292917490
3.418997 -3.4333484 -0.25393409 4292917490
3.4210353 -3.4594636 -0.2549808 4292917490
3.4195256 -3.4833808 -0.25581816 4292917490
3.4220688 -3.5116255 -0.25696957 4292917490
3.40979 -3.5235493 -0.25696957 4292917490
3.4036233 -3.5405965 -0.25738826 4292917490
3.40014 -3.5605307 -0.25801629 4292917490
3.4028077 -3.5883191 -0.25916767 4292917490
3.3971086 -3.6074457 -0.25969106 4292917490
3.3971086 -3.6074457 -0.25969106 4278190335
3.4070373 -3.6074457 -0.25969106 4278190335
3.416966 -3.6074457 -0.25969106 4278190335
3.4268947 -3.6074457 -0.25969106 4278190335
3.4368234 -3.6074457 -0.25969106 4278190335
3.4467521 -3.6074457 -0.25969106 4278190335
3.4566805 -3.6074457 -0.25969106 4278190335
3.4666092 -3.6074457 -0.25969106 4278190335
3.4765379 -3.6074457 -0.25969106 4278190335
3.4864666 -3.6074457 -0.25969106 4278190335
3.4963953 -3.6074457 -0.25969106 4278190335
3.5063241 -3.6074457 -0.25969106 4278190335
3.5162528 -3.6074457 -0.25969106 4278190335
3.5261815 -3.6074457 -0.25969106 4278190335
3.5361102 -3.6074457 -0.25969106 4278190335
3.5460389 -3.6074457 -0.25969106 4278190335
3.5559676 -3.6074457 -0.25969106 4278190335
3.565896 -3.6074457 -0.25969106 4278190335
3.5758247 -3.6074457 -0.25969106 4278190335
3.5857534 -3.6074457 -0.25969106 4278190335
3.5956821 -3.6074457 -0.25969106 4278190335
3.6056108 -3.6074457 -0.25969106 4278190335
3.6155396 -3.6074457 -0.25969106 4278190335
3.6254683 -3.6074457 -0.25969106 4278190335
3.635397 -3.6074457 -0.25969106 4278190335
3.6453257 -3.6074457 -0.25969106 4278190335
3.6552544 -3.6074457 -0.25969106 4278190335
3.6651831 -3.6074457 -0.25969106 4278190335
3.6751118 -3.6074457 -0.25969106 4278190335
3.6850405 -3.6074457 -0.25969106 4278190335
3.6949689 -3.6074457 -0.25969106 4278190335
3.7048976 -3.6074457 -0.25969106 4278190335
3.7148263 -3.6074457 -0.25969106 4278190335
3.724755 -3.6074457 -0.25969106 4278190335
3.7346838 -3.6074457 -0.25969106 4278190335
3.7446125 -3.6074457 -0.25969106 4278190335
3.7545412 -3.6074457 -0.25969106 4278190335
3.7644699 -3.6074457 -0.25969106 4278190335
3.7743986 -3.6074457 -0.25969106 4278190335
3.7843273 -3.6074457 -0.25969106 4278190335
3.7942557 -3.6074457 -0.25969106 4278190335
3.8041844 -3.6074457 -0.25969106 4278190335
3.8141131 -3.6074457 -0.25969106 4278190335
3.8240418 -3.6074457 -0.25969106 4278190335
3.8339705 -3.6074457 -0.25969106 4278190335
3.8438993 -3.6074457 -0.25969106 4278190335
3.853828 -3.6074457 -0.25969106 4278190335
3.853828 -3.6074457 -0.25969106 4278190335
3.853828 -3.5974655 -0.25969106 4278190335
3.853828 -3.5874853 -0.25969106 4278190335
3.853828 -3.5775051 -0.25969106 4278190335
3.853828 -3.5675249 -0.25969106 4278190335
3.853828 -3.5575445 -0.25969106 4278190335
3.853828 -3.5475643 -0.25969106 4278190335
3.853828 -3.5375841 -0.25969106 4278190335
3.853828 -3.5276039 -0.25969106 4278190335
3.853828 -3.5176237 -0.25969106 4278190335
3.853828 -3.5076435 -0.25969106 4278190335
3.853828 -3.4976633 -0.25969106 4278190335
3.853828 -3.4876831 -0.25969106 4278190335
3.853828 -3.4777026 -0.25969106 4278190335
3.853828 -3.4677224 -0.25969106 4278190335
3.853828 -3.4577422 -0.25969106 4278190335
3.853828 -3.447762 -0.25969106 4278190335
3.853828 -3.4377818 -0.25969106 4278190335
3.853828 -3.4278016 -0.25969106 4278190335
3.853828 -3.4178214 -0.25969106 4278190335
3.853828 -3.4078412 -0.25969106 4278190335
3.853828 -3.397861 -0.25969106 4278190335
3.853828 -3.3878806 -0.25969106 4278190335
3.853828 -3.3779004 -0.25969106 4278190335
3.853828 -3.3679202 -0.25969106 4278190335
3.853828 -3.35794 -0.25969106 4278190335
3.853828 -3.3479598 -0.25969106 4278190335
3.853828 -3.3379796 -0.25969106 4278190335
3.853828 -3.3279994 -0.25969106 4278190335
3.853828 -3.3180189 -0.25969106 4278190335
3.853828 -3.3080387 -0.25969106 4278190335
3.853828 -3.2980585 -0.25969106 4278190335
3.853828 -3.2880783 -0.25969106 4278190335
3.853828 -3.2780981 -0.25969106 4278190335
3.853828 -3.2681179 -0.25969106 4278190335
3.853828 -3.2581377 -0.25969106 4278190335
3.853828 -3.2481575 -0.25969106 4278190335
3.853828 -3.2381773 -0.25969106 4278190335
3.853828 -3.2281969 -0.25969106 4278190335
3.853828 -3.2182167 -0.25969106 4278190335
3.853828 -3.2082365 -0.25969106 4278190335
3.853828 -3.1982563 -0.25969106 4278190335
3.853828 -3.1882761 -0.25969106 4278190335
3.853828 -3.1782959 -0.25969106 4278190335
3.853828 -3.1683156 -0.25969106 4278190335
3.853828 -3.1583354 -0.25969106 4278190335
3.853828 -3.148355 -0.25969106 4278190335
3.853828 -3.1383748 -0.25969106 4278190335
3.853828 -3.1283946 -0.25969106 4278190335
3.853828 -3.1184144 -0.25969106 4278190335
3.853828 -3.1084342 -0.25969106 4278190335
3.853828 -3.098454 -0.25969106 4278190335
3.853828 -3.0884738 -0.25969106 4278190335
3.853828 -3.0784936 -0.25969106 4278190335
3.853828 -3.0685134 -0.25969106 4278190335
3.853828 -3.058533 -0.25969106 4278190335
3.853828 -3.0485528 -0.25969106 4278190335
3.853828 -3.0385725 -0.25969106 4278190335
3.853828 -3.0285923 -0.25969106 4278190335
3.853828 -3.0186121 -0.25969106 4278190335
3.853828 -3.0086319 -0.25969106 4278190335
3.853828 -2.9986517 -0.25969106 4278190335
3.853828 -2.9886713 -0.25969106 4278190335
3.853828 -2.9786911 -0.25969106 4278190335
3.853828 -2.9687109 -0.25969106 4278190335
3.853828 -2.9587307 -0.25969106 4278190335
3.853828 -2.9487505 -0.25969106 4278190335
3.853828 -2.9387703 -0.25969106 4278190335
3.853828 -2.9287901 -0.25969106 4278190335
3.853828 -2.9188099 -0.25969106 4278190335
3.853828 -2.9088297 -0.25969106 4278190335
3.853828 -2.8988495 -0.25969106 4278190335
3.853828 -2.888869 -0.25969106 4278190335
3.853828 -2.8788888 -0.25969106 4278190335
3.853828 -2.8689086 -0.25969106 4278190335
3.853828 -2.8589284 -0.25969106 4278190335
3.853828 -2.8489482 -0.25969106 4278190335
3.853828 -2.8389678 -0.25969106 4278190335
3.853828 -2.8289876 -0.25969106 4278190335
3.853828 -2.8190074 -0.25969106 4278190335
3.853828 -2.8090272 -0.25969106 4278190335
3.853828 -2.799047 -0.25969106 4278190335
3.853828 -2.7890668 -0.25969106 4278190335
3.853828 -2.7790866 -0.25969106 4278190335
3.853828 -2.7691064 -0.25969106 4278190335
3.853828 -2.7591262 -0.25969106 4278190335
3.853828 -2.749146 -0.25969106 4278190335
3.853828 -2.7391658 -0.25969106 4278190335
3.853828 -2.7291853 -0.25969106 4278190335
3.853828 -2.7192051 -0.25969106 4278190335
3.853828 -2.7092249 -0.25969106 4278190335
3.853828 -2.6992447 -0.25969106 4278190335
3.853828 -2.6892645 -0.25969106 4278190335
3.853828 -2.6792843 -0.25969106 4278190335
3.853828 -2.6693041 -0.25969106 4278190335
3.853828 -2.6593237 -0.25969106 4278190335
3.853828 -2.6493435 -0.25969106 4278190335
3.853828 -2.6393633 -0.25969106 4278190335
3.853828 -2.6293831 -0.25969106 4278190335
3.853828 -2.6194029 -0.25969106 4278190335
3.853828 -2.6094227 -0.25969106 4278190335
3.853828 -2.5994425 -0.25969106 4278190335
3.853828 -2.5894623 -0.25969106 4278190335
3.853828 -2.5794821 -0.25969106 4278190335
3.853828 -2.5695019 -0.25969106 4278190335
3.853828 -2.5595217 -0.25969106 4278190335
3.853828 -2.5495412 -0.25969106 4278190335
3.853828 -2.539561 -0.25969106 4278190335
3.853828 -2.5295808 -0.25969106 4278190335
3.853828 -2.5196006 -0.25969106 4278190335
3.853828 -2.5096202 -0.25969106 4278190335
3.853828 -2.49964 -0.25969106 4278190335
3.853828 -2.4896598 -0.25969106 4278190335
3.853828 -2.4796796 -0.25969106 4278190335
3.853828 -2.4696994 -0.25969106 4278190335
3.853828 -2.4597192 -0.25969106 4278190335
3.853828 -2.449739 -0.25969106 4278190335
3.853828 -2.4397588 -0.25969106 4278190335
3.853828 -2.4297786 -0.25969106 4278190335
3.853828 -2.4197984 -0.25969106 4278190335
3.853828 -2.4098182 -0.25969106 4278190335
3.853828 -2.3998377 -0.25969106 4278190335
3.853828 -2.3898578 -0.25969106 4278190335
3.853828 -2.3798773 -0.25969106 4278190335
3.853828 -2.3698971 -0.25969106 4278190335
3.853828 -2.3599169 -0.25969106 4278190335
3.853828 -2.3499365 -0.25969106 4278190335
3.853828 -2.3399565 -0.25969106 4278190335
3.853828 -2.3299761 -0.25969106 4278190335
3.853828 -2.3199959 -0.25969106 4278190335
3.853828 -2.3100157 -0.25969106 4278190335
3.853828 -2.3000355 -0.25969106 4278190335
3.853828 -2.2900553 -0.25969106 4278190335
3.853828 -2.2800751 -0.25969106 4278190335
3.853828 -2.2700949 -0.25969106 4278190335
3.853828 -2.2601147 -0.25969106 4278190335
3.853828 -2.2501345 -0.25969106 4278190335
3.853828 -2.2401543 -0.25969106 4278190335
3.853828 -2.2301741 -0.25969106 4278190335
3.853828 -2.2201936 -0.25969106 4278190335
3.853828 -2.2102134 -0.25969106 4278190335
3.853828 -2.200233 -0.25969106 4278190335
3.853828 -2.190253 -0.25969106 4278190335
3.853828 -2.1802728 -0.25969106 4278190335
3.853828 -2.1702924 -0.25969106 4278190335
3.853828 -2.1603122 -0.25969106 4278190335
3.853828 -2.150332 -0.25969106 4278190335
3.853828 -2.1403518 -0.25969106 4278190335
3.853828 -2.1303716 -0.25969106 4278190335
3.853828 -2.1203914 -0.25969106 4278190335
3.853828 -2.1104112 -0.25969106 4278190335
3.853828 -2.100431 -0.25969106 4278190335
3.853828 -2.0904508 -0.25969106 4278190335
3.853828 -2.0804706 -0.25969106 4278190335
3.853828 -2.0704901 -0.25969106 4278190335
3.853828 -2.0605102 -0.25969106 4278190335
3.853828 -2.0505297 -0.25969106 4278190335
3.853828 -2.0405495 -0.25969106 4278190335
3.853828 -2.0305693 -0.25969106 4278190335
3.853828 -2.0205889 -0.25969106 4278190335
3.853828 -2.0106089 -0.25969106 4278190335
3.853828 -2.0006285 -0.25969106 4278190335
3.853828 -1.9906484 -0.25969106 4278190335
3.853828 -1.9806682 -0.25969106 4278190335
3.853828 -1.9706879 -0.25969106 4278190335
3.853828 -1.9607077 -0.25969106 4278190335
3.853828 -1.9507273 -0.25969106 4278190335
3.853828 -1.9407473 -0.25969106 4278190335
3.853828 -1.9307671 -0.25969106 4278190335
3.853828 -1.9207867 -0.25969106 4278190335
3.853828 -1.9108065 -0.25969106 4278190335
3.853828 -1.9008262 -0.25969106 4278190335
3.853828 -1.890846 -0.25969106 4278190335
3.853828 -1.8808659 -0.25969106 4278190335
3.853828 -1.8708856 -0.25969106 4278190335
3.853828 -1.8609054 -0.25969106 4278190335
3.853828 -1.8509251 -0.25969106 4278190335
3.853828 -1.8409449 -0.25969106 4278190335
3.853828 -1.8309647 -0.25969106 4278190335
3.853828 -1.8209844 -0.25969106 4278190335
3.853828 -1.8110043 -0.25969106 4278190335
3.853828 -1.8010241 -0.25969106 4278190335
3.853828 -1.7910438 -0.25969106 4278190335
3.853828 -1.7810636 -0.25969106 4278190335
3.853828 -1.7710832 -0.25969106 4278190335
3.853828 -1.761103 -0.25969106 4278190335
3.853828 -1.751123 -0.25969106 4278190335
3.853828 -1.7411426 -0.25969106 4278190335
3.853828 -1.7311624 -0.25969106 4278190335
3.853828 -1.7211821 -0.25969106 4278190335
3.853828 -1.7112019 -0.25969106 4278190335
3.853828 -1.7012217 -0.25969106 4278190335
3.853828 -1.6912414 -0.25969106 4278190335
3.853828 -1.6812613 -0.25969106 4278190335
3.853828 -1.671281 -0.25969106 4278190335
3.853828 -1.6613008 -0.25969106 4278190335
3.853828 -1.6513206 -0.25969106 4278190335
3.853828 -1.6413403 -0.25969106 4278190335
3.853828 -1.6313601 -0.25969106 4278190335
3.853828 -1.6213797 -0.25969106 4278190335
3.853828 -1.6113997 -0.25969106 4278190335
3.853828 -1.6014194 -0.25969106 4278190335
3.853828 -1.591439 -0.25969106 4278190335
3.853828 -1.581459 -0.25969106 4278190335
3.853828 -1.5714786 -0.25969106 4278190335
3.853828 -1.5614984 -0.25969106 4278190335
3.853828 -1.5515182 -0.25969106 4278190335
3.853828 -1.541538 -0.25969106 4278190335
3.853828 -1.5315578 -0.25969106 4278190335
3.853828 -1.5215774 -0.25969106 4278190335
3.853828 -1.5115974 -0.25969106 4278190335
3.853828 -1.5016172 -0.25969106 4278190335
3.853828 -1.4916368 -0.25969106 4278190335
3.853828 -1.4816566 -0.25969106 4278190335
3.853828 -1.4716763 -0.25969106 4278190335
3.853828 -1.4616961 -0.25969106 4278190335
3.853828 -1.4517159 -0.25969106 4278190335
3.853828 -1.4417357 -0.25969106 4278190335
3.853828 -1.4317555 -0.25969106 4278190335
3.853828 -1.4217751 -0.25969106 4278190335
3.853828 -1.4117949 -0.25969106 4278190335
3.853828 -1.4018147 -0.25969106 4278190335
3.853828 -1.3918345 -0.25969106 4278190335
3.853828 -1.3818543 -0.25969106 4278190335
3.853828 -1.3718741 -0.25969106 4278190335
3.853828 -1.3618939 -0.25969106 4278190335
3.853828 -1.3519137 -0.25969106 4278190335
3.853828 -1.3419333 -0.25969106 4278190335
3.853828 -1.331953 -0.25969106 4278190335
3.853828 -1.3219731 -0.25969106 4278190335
3.853828 -1.3119926 -0.25969106 4278190335
3.853828 -1.3020124 -0.25969106 4278190335
3.853828 -1.2920322 -0.25969106 4278190335
3.853828 -1.282052 -0.25969106 4278190335
3.853828 -1.2720718 -0.25969106 4278190335
3.853828 -1.2620914 -0.25969106 4278190335
3.853828 -1.2521114 -0.25969106 4278190335
3.853828 -1.242131 -0.25969106 4278190335
3.853828 -1.2321508 -0.25969106 4278190335
3.853828 -1.2221706 -0.25969106 4278190335
3.853828 -1.2121904 -0.25969106 4278190335
3.853828 -1.2022102 -0.25969106 4278190335
3.853828 -1.1922297 -0.25969106 4278190335
3.853828 -1.1822498 -0.25969106 4278190335
3.853828 -1.1722696 -0.25969106 4278190335
3.853828 -1.1622891 -0.25969106 4278190335
3.853828 -1.1523089 -0.25969106 4278190335
3.853828 -1.1423287 -0.25969106 4278190335
3.853828 -1.1323485 -0.25969106 4278190335
3.853828 -1.1223683 -0.25969106 4278190335
3.853828 -1.1123881 -0.25969106 4278190335
3.853828 -1.1024079 -0.25969106 4278190335
3.853828 -1.0924275 -0.25969106 4278190335
3.853828 -1.0824473 -0.25969106 4278190335
3.853828 -1.0724673 -0.25969106 4278190335
3.853828 -1.0624869 -0.25969106 4278190335
3.853828 -1.0525067 -0.25969106 4278190335
3.853828 -1.0425265 -0.25969106 4278190335
3.853828 -1.0325463 -0.25969106 4278190335
3.853828 -1.0225661 -0.25969106 4278190335
3.853828 -1.0125856 -0.25969106 4278190335
3.853828 -1.0026054 -0.25969106 4278190335
3.853828 -0.99262547 -0.25969106 4278190335
3.853828 -0.98264503 -0.25969106 4278190335
3.853828 -0.97266483 -0.25969106 4278190335
3.853828 -0.96268463 -0.25969106 4278190335
3.853828 -0.95270443 -0.25969106 4278190335
3.853828 -0.94272423 -0.25969106 4278190335
3.853828 -0.93274379 -0.25969106 4278190335
3.853828 -0.92276382 -0.25969106 4278190335
3.853828 -0.91278338 -0.25969106 4278190335
3.853828 -0.90280318 -0.25969106 4278190335
3.853828 -0.89282298 -0.25969106 4278190335
3.853828 -0.88284278 -0.25969106 4278190335
3.853828 -0.87286258 -0.25969106 4278190335
3.853828 -0.86288214 -0.25969106 4278190335
3.853828 -0.85290217 -0.25969106 4278190335
3.853828 -0.84292197 -0.25969106 4278190335
3.853828 -0.83294153 -0.25969106 4278190335
3.853828 -0.82296133 -0.25969106 4278190335
3.853828 -0.81298113 -0.25969106 4278190335
3.853828 -0.80300093 -0.25969106 4278190335
3.853828 -0.80300093 -0.25969106 4278190335
3.8438993 -0.80300093 -0.25969106 4278190335
3.8339705 -0.80300093 -0.25969106 4278190335
3.8240418 -0.80300093 -0.25969106 4278190335
3.8141131 -0.80300093 -0.25969106 4278190335
3.8041844 -0.80300093 -0.25969106 4278190335
3.794256 -0.80300093 -0.25969106 4278190335
3.7843273 -0.80300093 -0.25969106 4278190335
3.7743986 -0.80300093 -0.25969106 4278190335
3.7644699 -0.80300093 -0.25969106 4278190335
3.7545412 -0.80300093 -0.25969106 4278190335
3.7446125 -0.80300093 -0.25969106 4278190335
3.7346838 -0.80300093 -0.25969106 4278190335
3.724755 -0.80300093 -0.25969106 4278190335
3.7148263 -0.80300093 -0.25969106 4278190335
3.7048976 -0.80300093 -0.25969106 4278190335
3.6949689 -0.80300093 -0.25969106 4278190335
3.6850405 -0.80300093 -0.25969106 4278190335
3.6751118 -0.80300093 -0.25969106 4278190335
3.6651831 -0.80300093 -0.25969106 4278190335
3.6552544 -0.80300093 -0.25969106 4278190335
3.6453257 -0.80300093 -0.25969106 4278190335
