# .PCD v0.7 - Point Cloud Data file format
VERSION 0.7
FIELDS x y z rgb
SIZE 4 4 4 4
TYPE F F F U
COUNT 1 1 1 1
WIDTH 1100
HEIGHT 1
VIEWPOINT 0 0 0 1 0 0 0
POINTS 1100
DATA ascii
2.173666 -2.7731757 -0.4326362 4283369429
2.3888428 -3.048795 -0.33886153 4283369429
2.6534152 -3.3888955 -0.22556801 4283369429
1.5863854 -2.0334048 -0.69104689 4283369429
1.7181551 -2.2038913 -0.6451596 4283369429
1.8379704 -2.3584282 -0.58120424 4283369429
1.9892818 -2.554425 -0.51279223 4283369429
2.1712875 -2.7901461 -0.43409866 4283369429
2.381856 -3.0618329 -0.33938447 4283369429
2.6489236 -3.4075975 -0.22619602 4283369429
1.5816437 -2.0419848 -0.69208211 4283369429
1.6973312 -2.1929238 -0.64021069 4283369429
1.8297266 -2.3648295 -0.58120424 4283369429
1.9863944 -2.5691671 -0.51435655 4283369429
2.1688168 -2.8071332 -0.43556106 4283369429
2.3784604 -3.0795894 -0.34043032 4283369429
2.6272509 -3.4041743 -0.22535865 4283369429
1.5803943 -2.0551503 -0.69467032 4283369429
1.6920407 -2.2019258 -0.64111048 4283369429
1.8310283 -2.3836572 -0.58425713 4283369429
1.9810228 -2.5807862 -0.51529521 4283369429
2.1505475 -2.8036613 -0.43385491 4283369429
2.3725457 -3.0941975 -0.34112757 4283369429
2.6226408 -3.422837 -0.22598669 4283369429
1.5743834 -2.0621901 -0.69518799 4283369429
1.6926181 -2.2186639 -0.64425981 4283369429
1.8155537 -2.3806679 -0.58196747 4283369429
1.975594 -2.5923991 -0.5162338 4283369429
2.1443558 -2.8158889 -0.43458611 4283369429
2.3737986 -3.1183133 -0.34287068 4283369429
2.6179321 -3.4415085 -0.22661473 4283369429
1.5648414 -2.0645938 -0.69415271 4283369429
1.688393 -2.2292194 -0.6456095 4283369429
1.8096026 -2.3901212 -0.58273071 4283369429
1.9748756 -2.6103065 -0.51842386 4283369429
2.1428936 -2.8344414 -0.43629229 4283369429
2.3604968 -3.1234014 -0.34252208 4283369429
2.6155322 -3.463376 -0.22745208 4283369429
1.5599482 -2.0731308 -0.69518799 4283369429
1.6887995 -2.246002 -0.64875883 4283369429
1.8036077 -2.3995621 -0.58349395 4283369429
1.9610065 -2.6108663 -0.5171724 4283369429
2.1365612 -2.8466671 -0.43702352 4283369429
2.3531666 -3.1364031 -0.343045 4283369429
2.605823 -3.4756813 -0.22766145 4283369429
1.5573267 -2.0847545 -0.69725859 4283369429
1.6751206 -2.2440753 -0.64650929 4283369429
1.7999171 -2.4121373 -0.58502042 4283369429
1.9577854 -2.6256137 -0.51873678 4283369429
2.1408443 -2.8732095 -0.43994835 4283369429
2.346415 -3.1513994 -0.34374225 4283369429
2.5960596 -3.4879603 -0.22787078 4283369429
1.5519763 -2.0935521 -0.69829381 4283369429
1.6649565 -2.2467775 -0.6456095 4283369429
1.7980741 -2.4281845 -0.58731008 4283369429
1.9504985 -2.6359475 -0.51936251 4283369429
2.116636 -2.8615134 -0.43702352 4283369429
2.3330317 -3.1563661 -0.34339362 4283369429
2.5820715 -3.4958453 -0.22776611 4283369429
1.549239 -2.1051803 -0.70036435 4283369429
1.6636376 -2.2622845 -0.64830893 4283369429
1.7872616 -2.4312828 -0.5865469 4283369429
1.9447942 -2.647516 -0.5203011 4283369429
2.1131816 -2.8788538 -0.43848595 4283369429
2.3267143 -3.1709161 -0.34409088 4283369429
2.580482 -3.5193334 -0.22870816 4283369429
1.539602 -2.1074557 -0.69932908 4283369429
1.6603266 -2.2743735 -0.65010852 4283369429
1.7857078 -2.4470217 -0.58883661 4283369429
1.9378684 -2.6574805 -0.52092683 4283369429
2.1101339 -2.8958385 -0.43994835 4283369429
2.3191509 -3.1838498 -0.34461379 4283369429
2.5740583 -3.5363932 -0.22923151 4283369429
1.5288336 -2.1081252 -0.69777614 4283369429
1.6546644 -2.2833114 -0.65100831 4283369429
1.7748519 -2.4500604 -0.58807337 4283369429
1.9297385 -2.6658292 -0.5212397 4283369429
2.1069937 -2.9128373 -0.44141081 4283369429
2.3091903 -3.1935401 -0.3447881 4283369429
2.5675471 -3.5534515 -0.22975488 4283369429
1.5282377 -2.1228561 -0.70088202 4283369429
1.644807 -2.2856224 -0.65010852 4283369429
1.7731657 -2.4658041 -0.59036303 4283369429
1.9220406 -2.6738174 -0.52155256 4283369429
2.0973227 -2.9198084 -0.44141081 4283369429
2.3049996 -3.211293 -0.34583399 4283369429
2.5522561 -3.5570781 -0.22944085 4283369429
1.5290542 -2.1389134 -0.70450544 4283369429
1.6345534 -2.2881784 -0.64920872 4283369429
1.7672609 -2.4748662 -0.59112626 4283369429
1.91958 -2.6901584 -0.52342981 4283369429
2.0871177 -2.9271116 -0.44141081 4283369429
2.3012762 -3.2286537 -0.34687987 4283369429
2.5444591 -3.5724726 -0.22985955 4283369429
1.5204605 -2.142662 -0.70398778 4283369429
1.6321921 -2.3018184 -0.65145826 4283369429
1.7517995 -2.47141 -0.58883661 4283369429
1.9147449 -2.7032905 -0.52468127 4283369429
2.0768874 -2.9343791 -0.44141081 4283369429
2.2922935 -3.2399199 -0.34722847 4283369429
2.5411968 -3.5943789 -0.2306969 4283369429
1.5096346 -2.1432185 -0.70243496 4283369429
1.6275123 -2.3122826 -0.65280795 4283369429
1.7454213 -2.4807212 -0.58959985 4283369429
1.9075693 -2.7131896 -0.525307 4283369429
2.0780432 -2.9578538 -0.44384819 4283369429
2.2832606 -3.2511628 -0.3475771 4283369429
2.5332239 -3.6097674 -0.23111561 4283369429
1.5021443 -2.1484749 -0.70243496 4283369429
1.6216632 -2.3211446 -0.65370774 4283369429
1.7479925 -2.5028944 -0.59341598 4283369429
1.8980868 -2.7198319 -0.525307 4283369429
2.0711124 -2.9699745 -0.44457942 4283369429
2.2787337 -3.2689195 -0.34862295 4283369429
2.5297406 -3.6316986 -0.23195298 4283369429
1.4990412 -2.160054 -0.70450544 4283369429
1.609109 -2.3203857 -0.65190816 4283369429
1.7392449 -2.5089808 -0.59341598 4283369429
1.8908312 -2.7296884 -0.52593273 4283369429
2.0607328 -2.977186 -0.44457942 4283369429
2.2752452 -3.2883232 -0.34984317 4283369429
2.5125051 -3.6339357 -0.2315343 4283369429
1.4947797 -2.1700461 -0.70605838 4283369429
1.605419 -2.3324091 -0.65370774 4283369429
1.7271378 -2.5101843 -0.59227115 4283369429
1.8812913 -2.7362721 -0.52593273 4283369429
2.0548241 -2.9909055 -0.44555435 4283369429
2.2705202 -3.3060994 -0.350889 4283369429
2.5099759 -3.6575048 -0.23247635 4283369429
1.4922663 -2.1834848 -0.7086466 4283369429
1.5968596 -2.3382776 -0.65370774 4283369429
1.7168192 -2.5148764 -0.59188956 4283369429
1.880155 -2.7562037 -0.52843571 4283369429
2.0438483 -2.9984167 -0.44555435 4283369429
2.2561438 -3.311106 -0.3505404 4283369429
2.5055459 -3.6798871 -0.23331371 4283369429
1.4759597 -2.1758907 -0.70450544 4283369429
1.5930613 -2.3502898 -0.65550733 4283369429
1.7102327 -2.5241046 -0.5926528 4283369429
1.8727374 -2.7660213 -0.52906144 4283369429
2.042268 -3.0186863 -0.44750425 4283369429
2.2423396 -3.3156602 -0.35019177 4283369429
2.4960406 -3.6935749 -0.23362774 4283369429
1.4737496 -2.1890419 -0.70709366 4283369429
1.5891985 -2.3623042 -0.65730697 4283369429
1.7046981 -2.5349464 -0.59379762 4283369429
1.8608674 -2.7692626 -0.52843571 4283369429
2.0361445 -3.0323887 -0.44847921 4283369429
2.2385254 -3.3350472 -0.35141194 4283369429
2.4886947 -3.7105589 -0.23415108 4283369429
1.4725392 -2.2038107 -0.71019953 4283369429
1.5798608 -2.3662162 -0.65685707 4283369429
1.7034683 -2.5523121 -0.59646893 4283369429
1.8533814 -2.7790282 -0.52906144 4283369429
2.0299506 -3.0460854 -0.44945419 4283369429
2.2290795 -3.3461576 -0.35176057 4283369429
2.4779408 -3.722549 -0.23436043 4283369429
1.4659053 -2.2105474 -0.71071708 4283369429
1.5715916 -2.3717165 -0.65685707 4283369429
1.6967168 -2.5615163 -0.59723216 4283369429
1.8513014 -2.7970114 -0.53125149 4283369429
2.0193055 -3.0531528 -0.44945419 4283369429
2.2261758 -3.3672137 -0.35315505 4283369429
2.4715371 -3.7411745 -0.23498847 4283369429
1.4666764 -2.2285607 -0.71485823 4283369429
1.5707985 -2.3885856 -0.6600064 4283369429
1.6931574 -2.5756261 -0.59914029 4283369429
1.8426116 -2.8051076 -0.53156441 4283369429
2.0108144 -3.0635018 -0.44994166 4283369429
2.2198734 -3.3832934 -0.35402662 4283369429
2.4584627 -3.7497787 -0.23498847 4283369429
1.4483243 -2.2174923 -0.70968187 4283369429
1.5645813 -2.3973181 -0.6609062 4283369429
1.6755748 -2.5683663 -0.59608734 4283369429
1.8328086 -2.8115225 -0.53156441 4283369429
2.0011919 -3.0721657 -0.45018539 4283369429
2.2037015 -3.3843431 -0.35332939 4283369429
2.4595189 -3.7801008 -0.23634921 4283369429
1.4426765 -2.2257769 -0.71071708 4283369429
1.5587423 -2.4057641 -0.66180599 4283369429
1.6740682 -2.5857356 -0.5987587 4283369429
1.8245482 -2.819243 -0.53187722 4283369429
1.9996167 -3.0921202 -0.45213532 4283369429
2.194037 -3.3953614 -0.35367799 4283369429
2.4502213 -3.7932692 -0.23666322 4283369429
1.4446959 -2.2451699 -0.7153759 4283369429
1.5471731 -2.4062729 -0.6604563 4283369429
1.6750377 -2.6061368 -0.60219324 4283369429
1.8178986 -2.8305812 -0.53281587 4283369429
1.9952438 -3.1091051 -0.45359772 4283369429
2.4369652 -3.8017991 -0.23666322 4283369429
1.4378895 -2.2518272 -0.71589351 4283369429
1.5398126 -2.4133017 -0.6609062 4283369429
1.6659305 -2.6119678 -0.60219324 4283369429
1.8143771 -2.8469045 -0.53469306 4283369429
1.9833126 -3.1143768 -0.453354 4283369429
2.4268956 -3.8153381 -0.23697723 4283369429
1.4372585 -2.2682557 -0.71951699 4283369429
1.5365914 -2.4268944 -0.66315573 4283369429
1.6589025 -2.6210847 -0.60295647 4283369429
1.8054841 -2.8548899 -0.53500593 4283369429
1.9724295 -3.1212807 -0.453354 4283369429
2.4188933 -3.8322308 -0.23750059 4283369429
1.4200772 -2.2585399 -0.71485823 4283369429
1.5353675 -2.443794 -0.66630501 4283369429
1.6476549 -2.6235344 -0.60219324 4283369429
1.8007576 -2.8695409 -0.53657025 4283369429
1.9731226 -3.1466465 -0.45603511 4283369429
2.1840503 -3.4843755 -0.35977891 4283369429
2.4171634 -3.8592708 -0.23865199 4283369429
1.4152528 -2.2684 -0.71641117 4283369429
1.5288899 -2.4524457 -0.6672048 4283369429
1.6457552 -2.6409335 -0.60486454 4283369429
1.789686 -2.8741326 -0.53625745 4283369429
1.9631754 -3.1552005 -0.45627886 4283369429
2.2049277 -3.5465021 -0.36535689 4283369429
2.4026229 -3.865988 -0.23854731 4283369429
1.412012 -2.2817857 -0.71899933 4283369429
1.5141689 -2.447824 -0.66450542 4283369429
1.6391615 -2.6519573 -0.60600942 4283369429
1.7781017 -2.8789921 -0.53594452 4283369429
1.9531927 -3.1637228 -0.45652261 4283369429
2.1967187 -3.5609598 -0.36605412 4283369429
2.2605786 -3.6673429 -0.22577733 4283369429
1.4070709 -2.2916398 -0.72055227 4283369429
1.5102825 -2.4616625 -0.66675496 4283369429
1.6298945 -2.6576629 -0.60600942 4283369429
1.7742339 -2.8952873 -0.53782177 4283369429
1.9415836 -3.1708608 -0.45652261 4283369429
2.1717935 -3.5482137 -0.36396238 4283369429
2.220669 -3.6309114 -0.22305585 4283369429
2.2310882 -3.6493778 -0.074661396 4283369429
1.4050936 -2.3064363 -0.72365808 4283369429
1.5031242 -2.4683216 -0.6672048 4283369429
1.6185665 -2.6599822 -0.60524619 4283369429
1.7677031 -2.9062178 -0.53876036 4283369429
1.9341512 -3.1823704 -0.45725381 4283369429
2.1552582 -3.5489614 -0.36326513 4283369429
2.1920338 -3.6109383 -0.22138111 4283369429
2.2007055 -3.6280782 -0.074068017 4283369429
1.3894403 -2.297858 -0.71951699 4283369429
1.4985305 -2.4802253 -0.66900444 4283369429
1.6188715 -2.6804597 -0.60868073 4283369429
1.7595888 -2.9157531 -0.53938609 4283369429
1.9302064 -3.2010026 -0.45896 4283369429
2.1445057 -3.5577953 -0.36343944 4283369429
2.1598377 -3.5860615 -0.21939236 4283369429
2.1725612 -3.6100368 -0.073544443 4283369429
1.3853865 -2.3093204 -0.72158754 4283369429
2.1710014 -3.6203053 0.073684059 4283369429
1.4948732 -2.4937983 -0.67125398 4283369429
1.6105143 -2.6877782 -0.60906237 4283369429
1.7494001 -2.9218776 -0.53938609 4283369429
1.9230977 -3.2145345 -0.45993495 4283369429
2.1259384 -3.5549996 -0.36239356 4283369429
2.1339881 -3.5712903 -0.21803163 4283369429
2.1455946 -3.5935616 -0.073055774 4283369429
1.384233 -2.3257627 -0.72521096 4283369429
2.1409695 -3.5986459 0.07309068 4283369429
1.4811786 -2.4906266 -0.66900444 4283369429
1.6051352 -2.7001338 -0.61058879 4283369429
1.7401991 -2.9296644 -0.53969896 4283369429
2.1043668 -3.5469778 -0.36082479 4283369429
2.1031761 -3.5477924 -0.21614751 4283369429
2.1208081 -3.5803833 -0.072636917 4283369429
1.3761061 -2.3305805 -0.72521096 4283369429
2.1141651 -3.5819876 0.072602011 4283369429
1.4754465 -2.5008168 -0.67035419 4283369429
2.1215005 -3.5972846 0.21886899 4283369429
1.5976948 -2.7091026 -0.61135209 4283369429
1.7339736 -2.9425285 -0.54095048 4283369429
1.9499626 -3.3117008 -0.47187814 4283369429
2.0737813 -3.5233943 -0.35768715 4283369429
2.0715425 -3.5224013 -0.21415874 4283369429
2.0839822 -3.5463872 -0.071799204 4283369429
1.3718684 -2.3420374 -0.72728157 4283369429
2.0915449 -3.5720897 0.072252966 4283369429
1.4696608 -2.5109973 -0.67170382 4283369429
2.0907764 -3.5736384 0.21698491 4283369429
1.5842626 -2.707885 -0.60982555 4283369429
1.7346579 -2.9673223 -0.54439199 4283369429
1.9383907 -3.3184874 -0.47187814 4283369429
2.0453963 -3.5030823 -0.35489815 4283369429
2.0461502 -3.5071845 -0.21279801 4283369429
2.053463 -3.5225432 -0.071170911 4283369429
1.360773 -2.3418009 -0.72572863 4283369429
2.0609839 -3.5482435 0.071624674 4283369429
1.4677366 -2.527909 -0.67485321 4283369429
2.0672615 -3.5619125 0.2158335 4283369429
1.5816994 -2.7252841 -0.61249691 4283369429
2.0755985 -3.5777156 0.36187065 4283369429
1.7282532 -2.9801946 -0.54564345 4283369429
1.9377427 -3.3441269 -0.47455928 4283369429
2.0151811 -3.4791679 -0.35176057 4283369429
2.0238907 -3.4970191 -0.2117513 4283369429
2.0301428 -3.510648 -0.07078696 4283369429
1.3516253 -2.3448629 -0.72521096 4283369429
2.0296173 -3.5224953 0.070961483 4283369429
1.4569583 -2.5296395 -0.67395335 4283369429
2.0428574 -3.5483367 0.21457745 4283369429
1.5731562 -2.7324905 -0.6128785 4283369429
2.0501778 -3.5624897 0.3596046 4283369429
1.7129148 -2.9776478 -0.54407912 4283369429
1.9290257 -3.3560333 -0.47529048 4283369429
1.9891279 -3.4619956 -0.34932023 4283369429
1.9967557 -3.4780812 -0.21018122 4283369429
2.0059357 -3.4968979 -0.070368104 4283369429
1.3491856 -2.3596292 -0.72831684 4283369429
1.9994481 -3.4983087 0.070333198 4283369429
1.449086 -2.536402 -0.67440325 4283369429
2.016592 -3.5311649 0.21311203 4283369429
1.56945 -2.7481942 -0.61516827 4283369429
2.0239012 -3.5454004 0.3571642 4283369429
1.7074058 -2.9921873 -0.54564345 4283369429
2.0221403 -3.5451889 0.50112677 4283369429
1.9104166 -3.3506751 -0.47358429 4283369429
1.9691386 -3.4550698 -0.34792572 4283369429
1.9628588 -3.4468472 -0.20787844 4283369429
1.9778942 -3.4760697 -0.069809623 4283369429
1.344753 -2.3710456 -0.73038733 4283369429
1.9753903 -3.4843915 0.069914341 4283369429
1.4411843 -2.5431404 -0.67485321 4283369429
1.9894876 -3.5121155 0.21154197 4283369429
1.5646857 -2.762197 -0.61707634 4283369429
2.0036595 -3.5385737 0.35576975 4283369429
1.6988966 -3.0015669 -0.54626918 4283369429
1.9941128 -3.5245824 0.49722698 4283369429
1.886005 -3.3348606 -0.47041571 4283369429
1.9354957 -3.4237647 -0.34409088 4283369429
1.9380457 -3.4310706 -0.2065177 4283369429
1.9559197 -3.4655383 -0.069460578 4283369429
1.3402569 -2.3824601 -0.73245794 4283369429
1.9514534 -3.4703493 0.069495484 4283369429
1.4361175 -2.5549505 -0.67665279 4283369429
1.956671 -3.4824722 0.20934384 4283369429
1.5483029 -2.7556608 -0.61440504 4283369429
1.9737335 -3.5142772 0.35263211 4283369429
1.7048482 -3.0367618 -0.551588 4283369429
1.9720833 -3.5142105 0.4947896 4283369429
1.8782375 -3.3483489 -0.47139066 4283369429
1.9863291 -3.5424938 0.64325857 4283369429
1.9167114 -3.4183352 -0.34287068 4283369429
1.9143428 -3.4169056 -0.20526163 4283369429
1.9262285 -3.4409366 -0.068832293 4283369429
1.3244021 -2.3736281 -0.72831684 4283369429
1.9286135 -3.4579296 0.069111533 4283369429
1.4338331 -2.5718625 -0.67980206 4283369429
1.9328359 -3.4683456 0.20808777 4283369429
1.5472755 -2.7764831 -0.61783957 4283369429
1.9459418 -3.4932966 0.34984317 4283369429
1.6865494 -3.0288873 -0.54908502 4283369429
1.9482193 -3.5002587 0.49186471 4283369429
1.8684682 -3.3583541 -0.47187814 4283369429
1.9489889 -3.5045204 0.63512403 4283369429
1.8883054 -3.3954039 -0.33990738 4283369429
1.8917325 -3.4043632 -0.20411025 4283369429
1.9025571 -3.4266598 -0.068413429 4283369429
1.3235916 -2.3917589 -0.73245794 4283369429
1.8962042 -3.4278944 0.06837853 4283369429
1.4257898 -2.5785573 -0.68025202 4283369429
1.9129881 -3.4610872 0.20725042 4283369429
1.5375742 -2.7818673 -0.61783957 4283369429
1.9163928 -3.468677 0.34670553 4283369429
1.6702368 -3.0243807 -0.54720783 4283369429
1.9244767 -3.4861829 0.48893982 4283369429
1.8509799 -3.3544273 -0.47041571 4283369429
1.9291118 -3.4974642 0.63262105 4283369429
1.8629701 -3.3775501 -0.33746704 4283369429
1.943208 -3.5244749 0.78231698 4283369429
1.8682692 -3.3899555 -0.20285419 4283369429
1.8770801 -3.4087567 -0.067924768 4283369429
1.315235 -2.3963645 -0.73245794 4283369429
1.8707613 -3.4099476 0.067889862 4283369429
1.4139692 -2.5783925 -0.67890227 4283369429
1.8836141 -3.436219 0.20536631 4283369429
1.5382349 -2.8061545 -0.62203735 4283369429
1.8985287 -3.4648616 0.34565967 4283369429
1.7061667 -3.1150863 -0.56253839 4283369429
1.8913234 -3.4545727 0.48357758 4283369429
1.8316355 -3.3469369 -0.46846578 4283369429
1.9055152 -3.4833806 0.62886661 4283369429
1.8377823 -3.3595612 -0.33502665 4283369429
1.907346 -3.4881728 0.77277648 4283369429
1.8420559 -3.3701677 -0.20128411 4283369429
1.9275414 -3.5280311 0.92814809 4283369429
1.8517516 -3.3907175 -0.067436099 4283369429
1.3096328 -2.4060314 -0.73401088 4283369429
1.850246 -3.4006484 0.067575715 4283369429
1.4049602 -2.5833125 -0.67890227 4283369429
1.8534836 -3.4094329 0.20337754 4283369429
1.5274929 -2.8097818 -0.62165576 4283369429
1.8712016 -3.4434578 0.34287068 4283369429
1.6952826 -3.1210232 -0.56253839 4283369429
1.8659923 -3.4367306 0.48016527 4283369429
1.8104722 -3.3358631 -0.46602839 4283369429
1.8820409 -3.4691753 0.62511224 4283369429
1.8174932 -3.3501945 -0.33345786 4283369429
1.8867352 -3.4792769 0.76934189 4283369429
1.8188596 -3.3555064 -0.20002805 4283369429
1.8929335 -3.4936166 0.91735035 4283369429
1.8303812 -3.3795772 -0.067087047 4283369429
1.3058144 -2.4190881 -0.73659903 4283369429
1.8317173 -3.3947675 0.067331389 4283369429
1.4042602 -2.6036377 -0.68295145 4283369429
1.8326861 -3.3979819 0.20233083 4283369429
1.5158122 -2.8116407 -0.62089252 4283369429
1.8478279 -3.4289215 0.34077895 4283369429
1.7003038 -3.1564865 -0.56785715 4283369429
1.8445736 -3.4257443 0.47772786 4283369429
1.7852838 -3.3156312 -0.46237233 4283369429
1.8536745 -3.4440875 0.61948055 4283369429
1.7963482 -3.3389723 -0.33171475 4283369429
1.8680698 -3.473738 0.76667058 4283369429
1.7929509 -3.3354473 -0.19845797 4283369429
1.8684204 -3.4758441 0.91105175 4283369429
1.800234 -3.3503981 -0.066388957 4283369429
1.8766197 -3.4940212 1.0627111 4283369429
1.294137 -2.4165931 -0.73452848 4283369429
1.8053499 -3.3726149 0.066772908 4283369429
1.3983763 -2.6134346 -0.68430108 4283369429
1.8101006 -3.3829083 0.20107476 4283369429
1.5046282 -2.8131895 -0.62012929 4283369429
1.8185997 -3.4016464 0.33746704 4283369429
1.6786548 -3.141201 -0.56410277 4283369429
1.820109 -3.4073293 0.47431552 4283369429
1.7621199 -3.2987709 -0.45920372 4283369429
1.8292176 -3.4258194 0.61510038 4283369429
1.7618126 -3.3009684 -0.32735696 4283369429
1.8362101 -3.4418063 0.75827497 4283369429
1.7724818 -3.3237512 -0.19741124 4283369429
1.8449628 -3.4596672 0.90520304 4283369429
1.7759446 -3.3316445 -0.065900289 4283369429
1.8541212 -3.4797657 1.0564994 4283369429
1.2879289 -2.4242833 -0.73556381 4283369429
1.7716469 -3.3361964 0.065935194 4283369429
1.3951845 -2.6283851 -0.68700051 4283369429
1.7889197 -3.3715634 0.20002805 4283369429
1.506333 -2.8389745 -0.62470871 4283369429
1.7942399 -3.3830163 0.33502665 4283369429
1.6626772 -3.1362786 -0.56222552 4283369429
1.7985752 -3.3940518 0.47163439 4283369429
1.7385147 -3.2820973 -0.45603511 4283369429
1.8080046 -3.4147263 0.61197168 4283369429
1.7418916 -3.2912493 -0.32578817 4283369429
1.8091743 -3.4183776 0.75178748 4283369429
1.7502429 -3.3084254 -0.19615518 4283369429
1.8255877 -3.4523046 0.90160388 4283369429
1.7549592 -3.3201444 -0.065551244 4283369429
1.8230114 -3.450346 1.0456289 4283369429
1.2808353 -2.4324062 -0.73659903 4283369429
1.7506738 -3.3246663 0.065586142 4283369429
1.3787398 -2.6194434 -0.68340129 4283369429
1.7678401 -3.360112 0.19898133 4283369429
1.4995731 -2.8514266 -0.62623513 4283369429
1.7725576 -3.3719339 0.33328354 4283369429
1.6621972 -3.1633358 -0.56597996 4283369429
1.7700962 -3.3686788 0.4672471 4283369429
1.7150476 -3.2652996 -0.45286649 4283369429
1.7859733 -3.4017777 0.6085301 4283369429
1.7211339 -3.2796676 -0.32404503 4283369429
1.784777 -3.402384 0.74682647 4283369429
1.7241929 -3.2882853 -0.1945851 4283369429
1.7984475 -3.4313557 0.89440536 4283369429
1.7340763 -3.3085384 -0.065202191 4283369429
1.8028878 -3.441288 1.0409703 4283369429
1.2785956 -2.4488497 -0.74022251 4283369429
1.727374 -3.309787 0.065167286 4283369429
1.3727353 -2.6313903 -0.68520093 4283369429
1.7425847 -3.3417754 0.19751592 4283369429
1.4896106 -2.8566439 -0.62623513 4283369429
1.7534095 -3.3639665 0.33188906 4283369429
1.6374538 -3.1428406 -0.56128693 4283369429
1.7439839 -3.3487341 0.46359101 4283369429
1.6874857 -3.2416301 -0.44872296 4283369429
1.7607276 -3.3837681 0.60415 4283369429
1.6995586 -3.2662137 -0.32212761 4283369429
1.7647362 -3.3929179 0.74339187 4283369429
1.6979631 -3.2659307 -0.19291034 4283369429
1.7711823 -3.4082167 0.88675708 4283369429
1.7090329 -3.2900281 -0.064713523 4283369429
1.7813603 -3.4307277 1.0357939 4283369429
1.2700396 -2.4532979 -0.74022251 4283369429
1.7066197 -3.2980368 0.064818241 4283369429
1.3671227 -2.6430895 -0.68700051 4283369429
1.7162325 -3.3194511 0.19584116 4283369429
1.482335 -2.867058 -0.62738001 4283369429
1.7297648 -3.3470564 0.32962301 4283369429
1.6264734 -3.1485372 -0.56128693 4283369429
1.7213547 -3.3336356 0.46066615 4283369429
1.6643243 -3.2245688 -0.44555435 4283369429
1.7307913 -3.3547835 0.59789258 4283369429
1.6817526 -3.2597318 -0.32090744 4283369429
1.7456836 -3.385098 0.74033892 4283369429
1.6792315 -3.2576356 -0.19207297 4283369429
1.7476709 -3.3918586 0.88090831 4283369429
1.6810571 -3.2639742 -0.064085238 4283369429
1.7569944 -3.4128785 1.0285469 4283369429
1.2632327 -2.4611533 -0.74125779 4283369429
1.68962 -3.2932985 0.064608812 4283369429
1.3596667 -2.6513138 -0.6879003 4283369429
1.6927909 -3.3023162 0.19448043 4283369429
1.4687357 -2.8652267 -0.62585354 4283369429
1.6989913 -3.3158379 0.32596248 4283369429
1.615473 -3.1541955 -0.56128693 4283369429
1.7024708 -3.3254879 0.45871624 4283369429
1.6431109 -3.2109199 -0.44287321 4283369429
1.710075 -3.3432178 0.59476393 4283369429
1.651654 -3.2303946 -0.3174212 4283369429
1.7177694 -3.3597064 0.73346978 4283369429
1.6578519 -3.2439144 -0.19092159 4283369429
1.7242955 -3.3753779 0.8750596 4283369429
1.6605598 -3.2520125 -0.063736185 4283369429
1.732775 -3.3949013 1.0213 4283369429
1.2507004 -2.4588795 -0.73918724 4283369429
1.6599824 -3.2635286 0.063910715 4283369429
1.3583523 -2.6716778 -0.69194949 4283369429
1.6740146 -3.2939608 0.19364306 4283369429
1.6778063 -3.3042777 0.32421938 4283369429
1.6137358 -3.1794717 -0.5647285 4283369429
1.6818678 -3.3137093 0.45627886 4283369429
1.6274019 -3.2077844 -0.44165453 4283369429
1.6894603 -3.3315487 0.59163523 4283369429
1.6313596 -3.218369 -0.31567809 4283369429
1.6947958 -3.3449645 0.72889042 4283369429
1.6324159 -3.2232423 -0.18935151 4283369429
1.7057519 -3.3695045 0.87191027 4283369429
1.6401662 -3.239948 -0.063387141 4283369429
1.7043414 -3.3681781 1.0114648 4283369429
1.2473284 -2.4735799 -0.742293 4283369429
1.6381091 -3.2499483 0.063526757 4283369429
1.3459208 -2.6714175 -0.69059974 4283369429
1.6511497 -3.2786684 0.19238698 4283369429
1.487049 -2.9528155 -0.64264476 4283369429
1.6555117 -3.2887585 0.32212761 4283369429
1.5928611 -3.1656744 -0.56128693 4283369429
1.6563319 -3.2932498 0.45262277 4283369429
1.6085008 -3.1995389 -0.43970463 4283369429
1.6665946 -3.3165381 0.58788079 4283369429
1.6129586 -3.2098017 -0.31428361 4283369429
1.6637229 -3.312264 0.72049481 4283369429
1.6104006 -3.2075016 -0.18809544 4283369429
1.6843647 -3.3562791 0.86696136 4283369429
1.6211071 -3.2316384 -0.0631079 4283369429
1.6859241 -3.3623137 1.0078415 4283369429
1.2421416 -2.4848306 -0.74436361 4283369429
1.6187102 -3.2395473 0.063212618 4283369429
1.3365875 -2.6760993 -0.69059974 4283369429
1.6236374 -3.2522469 0.1905029 4283369429
1.4784867 -2.9615009 -0.643408 4283369429
1.636905 -3.2802551 0.32073313 4283369429
1.5694571 -3.1464682 -0.55690676 4283369429
1.6297685 -3.2688103 0.44847921 4283369429
1.5831556 -3.1767075 -0.43580481 4283369429
1.6470804 -3.306422 0.58506501 4283369429
1.593749 -3.1993623 -0.31271479 4283369429
1.6451499 -3.3039916 0.71744186 4283369429
1.5902952 -3.1952231 -0.18704872 4283369429
1.6578827 -3.3324776 0.85931301 4283369429
1.5973511 -3.2122099 -0.062619232 4283369429
1.6638585 -3.3474188 1.0016297 4283369429
1.2360336 -2.4943445 -0.74591655 4283369429
1.5976287 -3.2254667 0.06282866 4283369429
1.3324258 -2.6912272 -0.69329917 4283369429
1.6016446 -3.2364142 0.18924683 4283369429
1.4733647 -2.9772012 -0.64569765 4283369429
1.6166108 -3.2680907 0.31898999 4283369429
1.5602152 -3.1554687 -0.55753249 4283369429
1.6104329 -3.2584629 0.44628558 4283369429
1.5588691 -3.1555178 -0.43214872 4283369429
1.6206605 -3.2820408 0.57974619 4283369429
1.5711038 -3.1816821 -0.31044877 4283369429
1.6257863 -3.2938697 0.71400726 4283369429
1.569412 -3.1810522 -0.18589734 4283369429
1.6290019 -3.3032892 0.85031497 4283369429
1.575519 -3.1962428 -0.062200375 4283369429
1.6427715 -3.3341444 0.99593574 4283369429
1.2205054 -2.484772 -0.74177545 4283369429
1.5784283 -3.214869 0.062514521 4283369429
1.3290337 -2.7081075 -0.6964485 4283369429
1.5815414 -3.2240539 0.18820012 4283369429
1.473339 -3.0034776 -0.65027708 4283369429
1.5876499 -3.2379355 0.31550378 4283369429
1.531804 -3.1254199 -0.55127513 4283369429
1.5929357 -3.2515857 0.44457942 4283369429
1.5417335 -3.1484599 -0.43044254 4283369429
1.594431 -3.2575159 0.57442743 4283369429
1.5459734 -3.1585143 -0.30765978 4283369429
1.6047882 -3.2801261 0.70980954 4283369429
1.5521564 -3.1739516 -0.18516463 4283369429
1.6131827 -3.3002012 0.8480655 4283369429
1.5538181 -3.1801627 -0.061781518 4283369429
1.6184068 -3.3138199 0.9881711 4283369429
1.2160527 -2.4977019 -0.74436361 4283369429
1.5505711 -3.1861954 0.06185133 4283369429
1.3204248 -2.7144825 -0.69689834 4283369429
1.5632908 -3.2151854 0.18736275 4283369429
1.4491102 -2.9803522 -0.64417118 4283369429
1.5676286 -3.225538 0.31376067 4283369429
1.5122536 -3.1129797 -0.54814643 4283369429
1.5711704 -3.2356977 0.44165453 4283369429
1.5255333 -3.1431077 -0.42898014 4283369429
1.577015 -3.2506204 0.57223737 4283369429
1.5262426 -3.1459658 -0.30591667 4283369429
1.5796225 -3.2574437 0.70370364 4283369429
1.5314851 -3.1595805 -0.18401325 4283369429
1.5931556 -3.288275 0.84356648 4283369429
1.5339923 -3.1675696 -0.061432473 4283369429
1.5950454 -3.2951055 0.98092425 4283369429
1.2123644 -2.5123706 -0.74746948 4283369429
1.5350959 -3.1825831 0.061676804 4283369429
1.3092486 -2.7155645 -0.69599855 4283369429
1.5468562 -3.2098272 0.18673471 4283369429
1.4404029 -2.9889295 -0.64493442 4283369429
1.5477136 -3.2130404 0.31201756 4283369429
1.4885234 -3.0915425 -0.5434534 4283369429
1.5478146 -3.2161205 0.4382422 4283369429
1.500784 -3.1197915 -0.4250803 4283369429
1.556242 -3.2365227 0.5687958 4283369429
1.5083442 -3.1369097 -0.30452216 4283369429
1.5597376 -3.2452428 0.69988745 4283369429
1.5066087 -3.1361024 -0.18233849 4283369429
1.5690147 -3.2674656 0.83681792 4283369429
1.5177341 -3.1620879 -0.061223041 4283369429
1.5751772 -3.2832353 0.97574782 4283369429
1.2069215 -2.5235584 -0.74953997 4283369429
1.51449 -3.1680763 0.061292849 4283369429
1.3006018 -2.7218766 -0.6964485 4283369429
1.5207036 -3.1825013 0.1848506 4283369429
1.4350375 -3.0045686 -0.64722413 4283369429
1.5313383 -3.2076354 0.31097168 4283369429
1.4709171 -3.0824568 -0.54095048 4283369429
1.5263236 -3.2000034 0.43531734 4283369429
1.4801748 -3.1032505 -0.42215544 4283369429
1.5352994 -3.2202687 0.56504136 4283369429
1.4888142 -3.1241693 -0.30277905 4283369429
1.5382688 -3.2293983 0.69530803 4283369429
1.4870666 -3.1233096 -0.18129177 4283369429
1.5497934 -3.2550557 0.8323189 4283369429
1.4952097 -3.1418245 -0.060734376 4283369429
1.557642 -3.2744846 0.97160673 4283369429
1.2018572 -2.5345292 -0.75161052 4283369429
1.5005499 -3.1658535 0.061153233 4283369429
1.2965745 -2.7367411 -0.69914788 4283369429
1.4998801 -3.1658676 0.18359455 4283369429
1.4317883 -3.0235057 -0.65027708 4283369429
1.5121688 -3.1946874 0.30922857 4283369429
1.4564631 -3.0783899 -0.53938609 4283369429
1.5097631 -3.1924853 0.43361115 4283369429
1.4588436 -3.0848129 -0.41898686 4283369429
1.5119494 -3.1985536 0.56034833 4283369429
1.4750413 -3.1218836 -0.30208179 4283369429
1.5275512 -3.2344818 0.69530803 4283369429
1.4673227 -3.1083562 -0.18014038 4283369429
1.5273445 -3.2355053 0.8260203 4283369429
1.4702762 -3.1160214 -0.060140993 4283369429
1.5344137 -3.253423 0.96384215 4283369429
1.1926237 -2.5367522 -0.75109291 4283369429
1.4815384 -3.152714 0.060804185 4283369429
1.2932919 -2.7533727 -0.70229721 4283369429
1.4842789 -3.1599772 0.18296652 4283369429
1.4059012 -2.9944715 -0.64302635 4283369429
1.48887 -3.1726296 0.30661389 4283369429
1.4345025 -3.0581646 -0.53500593 4283369429
1.4924264 -3.1830955 0.43166125 4283369429
1.4427071 -3.0770524 -0.41728067 4283369429
1.4921134 -3.1838741 0.55690676 4283369429
1.4460868 -3.0870645 -0.29824695 4283369429
1.5018321 -3.2075253 0.68843889 4283369429
1.4519273 -3.1023514 -0.17951234 4283369429
1.5099983 -3.2264326 0.82242107 4283369429
1.4565456 -3.1136346 -0.060001373 4283369429
1.5105245 -3.2304933 0.95555997 4283369429
1.1858373 -2.5441954 -0.75212818 4283369429
1.4541863 -3.1213567 0.060106091 4283369429
1.4653604 -3.1467762 0.1819198 4283369429
1.4017625 -3.0115767 -0.64569765 4283369429
1.468256 -3.1558721 0.30452216 4283369429
1.4135249 -3.0396199 -0.53093863 4283369429
1.4718217 -3.1664255 0.42873639 4283369429
1.4274746 -3.0710187 -0.41581824 4283369429
1.4757205 -3.1762645 0.55471671 4283369429
1.4308069 -3.0810008 -0.29720107 4283369429
1.4796147 -3.1875572 0.68309623 4283369429
1.4357471 -3.0944667 -0.17877965 4283369429
1.4869879 -3.204906 0.81567252 4283369429
1.4369582 -3.0984921 -0.059617419 4283369429
1.4900539 -3.2144523 0.94934833 4283369429
1.1797429 -2.5555403 -0.75419873 4283369429
1.4343582 -3.1085083 0.059757043 4283369429
1.2879131 -2.7924173 -0.7099455 4283369429
1.4449052 -3.1342416 0.18087308 4283369429
1.3852584 -3.0062385 -0.643408 4283369429
1.4500083 -3.1467564 0.30312768 4283369429
1.3949372 -3.0286326 -0.52812284 4283369429
1.4469241 -3.1429479 0.42483655 4283369429
1.4115229 -3.067461 -0.41459954 4283369429
1.4569105 -3.1675501 0.55221373 4283369429
1.4131404 -3.0738001 -0.2959809 4283369429
1.4575273 -3.171808 0.67851686 4283369429
1.41135 -3.0727322 -0.17720957 4283369429
1.4665371 -3.1928833 0.8111735 4283369429
1.4250503 -3.103987 -0.059617419 4283369429
1.4688373 -3.2008359 0.9436543 4283369429
1.1751882 -2.5703888 -0.75730455 4283369429
1.4129813 -3.0919192 0.059338182 4283369429
1.2720022 -2.7847109 -0.70679623 4283369429
1.4201356 -3.1104469 0.17919834 4283369429
1.375046 -3.0130813 -0.64378959 4283369429
1.4285393 -3.1302989 0.30103594 4283369429
1.3772688 -3.019347 -0.52561986 4283369429
1.4271597 -3.130168 0.42239916 4283369429
1.3846298 -3.0382929 -0.4099685 4283369429
1.4371021 -3.1548922 0.54908502 4283369429
1.3960857 -3.0662661 -0.29476073 4283369429
1.4377605 -3.1592596 0.67470068 4283369429
1.3901546 -3.0560687 -0.17595351 4283369429
1.445142 -3.1769512 0.80577469 4283369429
1.4020766 -3.0837042 -0.059128754 4283369429
1.451501 -3.1938865 0.94003081 4283369429
1.1673533 -2.5781984 -0.75833982 4283369429
1.3983408 -3.0897901 0.059198562 4283369429
1.2810633 -2.8319669 -0.71759385 4283369429
1.4026845 -3.100827 0.17836095 4283369429
1.3531963 -2.9928186 -0.63844693 4283369429
1.40721 -3.1137264 0.29894418 4283369429
1.3605009 -3.0117731 -0.52342981 4283369429
1.410776 -3.1245224 0.42093676 4283369429
1.3661354 -3.0270629 -0.40777487 4283369429
1.4138921 -3.1328816 0.54439199 4283369429
1.3812776 -3.0620396 -0.29388916 4283369429
1.4186541 -3.1463618 0.67088449 4283369429
1.3720932 -3.0445142 -0.17501146 4283369429
1.4222828 -3.1573513 0.79947603 4283369429
1.3798051 -3.0630541 -0.058640085 4283369429
1.4094105 -3.1302342 0.9198429 4283369429
1.1575559 -2.5804954 -0.75782222 4283369429
1.379903 -3.076165 0.058849517 4283369429
1.2652868 -2.8219743 -0.71399468 4283369429
1.385317 -3.0911238 0.17752358 4283369429
1.3363206 -2.9831901 -0.63539398 4283369429
1.3898195 -3.1040721 0.29754972 4283369429
1.3448553 -3.0036478 -0.5212397 4283369429
1.3922979 -3.1110644 0.41849938 4283369429
1.3471733 -3.0116439 -0.40509373 4283369429
1.3924663 -3.1143548 0.54032475 4283369429
1.355948 -3.0341008 -0.29075155 4283369429
1.4018042 -3.1367097 0.66783154 4283369429
1.3546582 -3.0326355 -0.1740694 4283369429
1.4070385 -3.1513734 0.79677659 4283369429
1.3576957 -3.0422864 -0.05815142 4283369429
1.3898187 -3.1157277 0.91414887 4283369429
1.1482073 -2.5825541 -0.75730455 4283369429
1.3561635 -3.0517249 0.058291037 4283369429
1.2593838 -2.8352785 -0.71624416 4283369429
1.3696561 -3.0849879 0.17689554 4283369429
1.3168607 -2.9660728 -0.63081461 4283369429
1.3698204 -3.0868104 0.29545796 4283369429
1.3239497 -2.9848497 -0.5171724 4283369429
1.3733846 -3.0977581 0.416062 4283369429
1.3326317 -3.0072536 -0.40387502 4283369429
1.3759862 -3.1065533 0.53813463 4283369429
1.3370032 -3.0185418 -0.28883412 4283369429
1.382899 -3.1236317 0.66401535 4283369429
1.3375987 -3.0227339 -0.17323203 4283369429
1.3889347 -3.1402264 0.79272753 4283369429
1.3454506 -3.043349 -0.058081608 4283369429
1.3664412 -3.0922883 0.90586674 4283369429
1.1454151 -2.6006901 -0.76144564 4283369429
1.3390571 -3.0417986 0.0580118 4283369429
1.2463397 -2.8325224 -0.71444452 4283369429
1.3508383 -3.0714676 0.17584883 4283369429
1.3064991 -2.9706514 -0.63081461 4283369429
1.3518208 -3.0751579 0.29388916 4283369429
1.3071659 -2.9749849 -0.51466948 4283369429
1.3497914 -3.0734527 0.41216215 4283369429
1.316541 -2.9991636 -0.40216887 4283369429
1.3619596 -3.1041019 0.53688318 4283369429
1.319254 -3.0067699 -0.28726533 4283369429
1.3625246 -3.1068642 0.65943593 4283369429
1.3150113 -2.9999464 -0.17166196 4283369429
1.3724908 -3.1325607 0.7895782 4283369429
1.325193 -3.0260463 -0.057662752 4283369429
1.3509908 -3.0864208 0.90276086 4283369429
1.1378746 -2.6082141 -0.76248091 4283369429
1.3220369 -3.0317898 0.05773256 4283369429
1.2380022 -2.8404284 -0.71534431 4283369429
1.3289411 -3.0505297 0.17438343 4283369429
1.2882806 -2.9571953 -0.62699842 4283369429
1.3355103 -3.067071 0.292669 4283369429
1.2881021 -2.9596055 -0.51122791 4283369429
1.3335116 -3.0654035 0.410456 4283369429
1.2957735 -2.9800749 -0.39900026 4283369429
1.3463912 -3.0979671 0.53500593 4283369429
1.3039851 -3.0003932 -0.28621945 4283369429
1.3446318 -3.0953953 0.65600139 4283369429
1.2973726 -2.9880297 -0.17071991 4283369429
1.3483585 -3.1069424 0.78192985 4283369429
1.3114393 -3.0233157 -0.057523135 4283369429
1.3340614 -3.0769379 0.89861977 4283369429
1.1318288 -2.6192636 -0.76455152 4283369429
1.3051026 -3.0216999 0.057453319 4283369429
1.2303964 -2.8501003 -0.71669406 4283369429
1.3040417 -3.022141 0.17249933 4283369429
1.2670609 -2.9364374 -0.62165576 4283369429
1.3232181 -3.0680547 0.29232034 4283369429
1.2722889 -2.9513857 -0.50903779 4283369429
1.3157338 -3.0536315 0.40826234 4283369429
1.2751559 -2.9608781 -0.39583167 4283369429
1.3222919 -3.0718029 0.52968717 4283369429
1.2887775 -2.9939461 -0.28517357 4283369429
1.329939 -3.0910532 0.65409327 4283369429
1.2806221 -2.9778621 -0.16988252 4283369429
1.3267313 -3.0865653 0.77563125 4283369429
1.2866693 -2.9948034 -0.056894846 4283369429
1.3172141 -3.0673754 0.89447862 4283369429
1.1203985 -2.6178703 -0.76299858 4283369429
1.2866821 -3.0078518 0.057104275 4283369429
1.2196745 -2.852586 -0.71624416 4283369429
1.2903448 -3.0193284 0.17208064 4283369429
1.2475449 -2.919179 -0.61707634 4283369429
1.2999781 -3.0433393 0.28953138 4283369429
1.258101 -2.9467254 -0.50747347 4283369429
1.3027291 -3.0527284 0.40753111 4283369429
1.2593607 -2.9525299 -0.39412549 4283369429
1.3022652 -3.0545945 0.52593273 4283369429
1.2642545 -2.9654365 -0.28203598 4283369429
1.3091358 -3.0721974 0.64913225 4283369429
1.2655238 -2.9712892 -0.1692545 4283369429
1.3121328 -3.0822124 0.77338171 4283369429
1.269944 -2.984556 -0.056615606 4283369429
1.2974263 -3.0506215 0.88826698 4283369429
1.2683743 -2.9939125 0.056755226 4283369429
1.2059106 -2.8478534 -0.71399468 4283369429
1.279019 -3.0219748 0.17197597 4283369429
1.2296952 -2.905436 -0.61326015 4283369429
1.2792557 -3.0240042 0.28726533 4283369429
1.2385753 -2.9292662 -0.50371903 4283369429
1.2843374 -3.0389724 0.40509373 4283369429
1.2436399 -2.9441075 -0.39241934 4283369429
1.2846791 -3.0427432 0.52311689 4283369429
1.2507952 -2.9624898 -0.28133872 4283369429
1.290771 -3.0586603 0.64531606 4283369429
1.2520398 -2.9683273 -0.1688358 4283369429
1.2968233 -3.076 0.77068228 4283369429
1.2548589 -2.9779143 -0.056406178 4283369429
1.2807711 -3.0408885 0.88412589 4283369429
1.1163014 -2.6594727 -0.7728337 4283369429
1.2494063 -2.9780376 0.056371275 4283369429
1.2042514 -2.871814 -0.71894354 4283369429
1.2597224 -3.004097 0.17071991 4283369429
1.2165102 -2.9024682 -0.61173368 4283369429
1.2656131 -3.0211003 0.28656808 4283369429
1.2245282 -2.9244611 -0.50215465 4283369429
1.2599267 -3.0104756 0.40070644 4283369429
1.2310572 -2.9429367 -0.39168811 4283369429
1.2715329 -3.0396972 0.52186543 4283369429
1.2342983 -2.952132 -0.27994424 4283369429
1.2694882 -3.0377872 0.6399734 4283369429
1.2308933 -2.9468787 -0.16737041 4283369429
1.2770691 -3.0589283 0.76528347 4283369429
1.2418954 -2.9746778 -0.056266561 4283369429
1.2647283 -3.0308561 0.8799848 4283369429
1.1077527 -2.6651371 -0.77335137 4283369429
1.2356863 -2.9729319 0.056196753 4283369429
1.1962171 -2.8793907 -0.71984333 4283369429
1.2385057 -2.9826519 0.1692545 4283369429
1.200351 -2.8921905 -0.60868073 4283369429
1.2504789 -3.0144582 0.28552222 4283369429
1.2080114 -2.9120843 -0.49933887 4283369429
1.2423339 -2.9963 0.39826906 4283369429
1.2076114 -2.9139936 -0.38730082 4283369429
1.2518432 -3.0222168 0.51811105 4283369429
1.2148404 -2.9343324 -0.27785251 4283369429
1.2488937 -3.0165851 0.63463074 4283369429
1.2127141 -2.9306438 -0.16621901 4283369429
1.2594701 -3.0451384 0.76078445 4283369429
1.2223366 -2.9568183 -0.055847701 4283369429
1.2475014 -3.0191836 0.87532604 4283369429
1.1062645 -2.6866591 -0.77852774 4283369429
1.2176905 -2.9587348 0.055847701 4283369429
1.1831933 -2.8763399 -0.71804374 4283369429
1.2197319 -2.9666378 0.16810311 4283369429
1.1817944 -2.874366 -0.6041013 4283369429
1.2313881 -2.9964738 0.28343046 4283369429
1.1963383 -2.9126287 -0.49871314 4283369429
1.2273434 -2.9895999 0.3968066 4283369429
1.1936647 -2.9090083 -0.38608211 4283369429
1.2322916 -3.0046365 0.51435655 4283369429
1.1993002 -2.9256506 -0.27663234 4283369429
1.2413348 -3.0281923 0.63615721 4283369429
1.196419 -2.920074 -0.16538164 4283369429
1.2392325 -3.026072 0.75493574 4283369429
1.1998879 -2.9314566 -0.055289224 4283369429
1.2311028 -3.0092158 0.87118495 4283369429
1.0949516 -2.6871181 -0.77749246 4283369429
1.2043368 -2.95556 0.055708081 4283369429
1.170941 -2.8750381 -0.71669406 4283369429
1.2071102 -2.9653277 0.16778909 4283369429
1.1638528 -2.8604929 -0.60028511 4283369429
1.2098895 -2.9751284 0.28099012 4283369429
1.1774727 -2.8968639 -0.49527156 4283369429
1.2124157 -2.982832 0.3953442 4283369429
1.1790202 -2.9021227 -0.38461968 4283369429
1.2128773 -2.9869568 0.51060218 4283369429
1.1778417 -2.9021268 -0.27401763 4283369429
1.2250619 -3.0199869 0.63348591 4283369429
1.1849579 -2.9225886 -0.16527697 4283369429
1.220814 -3.0125329 0.75043672 4283369429
1.1851419 -2.9245071 -0.055079795 4283369429
1.2104375 -2.9884269 0.86393797 4283369429
1.0819516 -2.6819658 -0.77490425 4283369429
1.1815311 -2.9302807 0.055149604 4283369429
1.1560249 -2.8684659 -0.71399468 4283369429
1.1917561 -2.9586165 0.16716106 4283369429
1.1494594 -2.8536119 -0.5979954 4283369429
1.1950324 -2.9682443 0.27994424 4283369429
1.1577668 -2.8771331 -0.49120426 4283369429
1.1940676 -2.9688389 0.39290681 4283369429
1.1639328 -2.8953733 -0.38315722 4283369429
1.1997123 -2.9858832 0.50966352 4283369429
1.1617618 -2.8914309 -0.27262318 4283369429
1.202075 -2.9932735 0.62699842 4283369429
1.1658213 -2.9044645 -0.1640209 4283369429
1.2088392 -3.013159 0.74953693 4283369429
1.1714377 -2.9214072 -0.054940179 4283369429
1.1894151 -2.9677386 0.85669106 4283369429
1.0790315 -2.7018728 -0.77956301 4283369429
1.1638823 -2.9158146 0.054800555 4283369429
1.130118 -2.8326635 -0.70409679 4283369429
1.1769826 -2.9516273 0.16653302 4283369429
1.1365827 -2.8503127 -0.59646893 4283369429
1.1780254 -2.9557405 0.27837545 4283369429
1.1411375 -2.864641 -0.48838848 4283369429
1.1741511 -2.9490132 0.3897382 4283369429
1.1472135 -2.8828189 -0.38096359 4283369429
1.1827115 -2.9735332 0.50684774 4283369429
1.1479797 -2.8862116 -0.27175158 4283369429
1.1821905 -2.9737344 0.62203735 4283369429
1.1446127 -2.8806746 -0.16245082 4283369429
1.1904023 -2.9974377 0.74458802 4283369429
1.1582822 -2.9180439 -0.054800555 4283369429
1.1769109 -2.9664857 0.85513818 4283369429
1.0745652 -2.718199 -0.7831865 4283369429
1.1492881 -2.9087012 0.05459113 4283369429
1.1123496 -2.816653 -0.69914788 4283369429
1.1578732 -2.9334245 0.16527697 4283369429
1.1208601 -2.8396535 -0.59341598 4283369429
1.1647756 -2.9524209 0.27767819 4283369429
1.1267836 -2.8575804 -0.48651123 4283369429
1.1594831 -2.9420125 0.38827574 4283369429
1.1276851 -2.8627956 -0.37779501 4283369429
1.167259 -2.9647772 0.50465763 4283369429
1.1327888 -2.8772244 -0.27053142 4283369429
1.1667709 -2.9650543 0.61936599 4283369429
1.1308955 -2.8753593 -0.16192746 4283369429
1.1735153 -2.9852519 0.74053884 4283369429
1.142239 -2.9071798 -0.054521319 4283369429
1.1580753 -2.9489977 0.84892654 4283369429
1.0587348 -2.7057421 -0.77852774 4283369429
1.1347576 -2.9015212 0.054381698 4283369429
1.099673 -2.8132589 -0.6973483 4283369429
1.1403583 -2.9188449 0.16423026 4283369429
1.1009389 -2.8179474 -0.58807337 4283369429
1.1486651 -2.9416215 0.27628368 4283369429
1.1124926 -2.850455 -0.48463401 4283369429
1.1470422 -2.9404938 0.38754454 4283369429
1.1104746 -2.8482196 -0.3753576 4283369429
1.1475788 -2.9449065 0.50059032 4283369429
1.1198447 -2.8737354 -0.26983419 4283369429
1.1528509 -2.9599624 0.61745793 4283369429
1.1179538 -2.8718445 -0.16150878 4283369429
1.1539016 -2.9657207 0.73469019 4283369429
1.1175888 -2.8738747 -0.053823221 4283369429
1.144275 -2.9440188 0.84633833 4283369429
1.047888 -2.7058184 -0.77749246 4283369429
1.1217355 -2.898005 0.054242078 4283369429
1.0849243 -2.804358 -0.69419897 4283369429
1.1244001 -2.9079051 0.16339287 4283369429
1.0854312 -2.8071244 -0.58502042 4283369429
1.1290532 -2.9214535 0.27401763 4283369429
1.0968417 -2.8395798 -0.48213109 4283369429
1.1296214 -2.9259613 0.38510716 4283369429
1.0976667 -2.8446703 -0.37438264 4283369429
1.1301843 -2.9304636 0.49746165 4283369429
1.1026376 -2.8590374 -0.26809105 4283369429
1.1354506 -2.9456496 0.61364174 4283369429
1.1036137 -2.8645473 -0.16088074 4283369429
1.1379404 -2.9551818 0.73109096 4283369429
1.1046774 -2.8702931 -0.053683605 4283369429
1.1256684 -2.9263585 0.84012663 4283369429
1.0446591 -2.7256944 -0.78215116 4283369429
1.1051743 -2.8850965 0.053927936 4283369429
1.0702513 -2.7953885 -0.69104964 4283369429
1.1128155 -2.9080813 0.16318353 4283369429
1.0714164 -2.7998946 -0.58273071 4283369429
1.1103073 -2.9030457 0.2719259 4283369429
1.0749322 -2.8120234 -0.4768123 4283369429
1.1151505 -2.9187605 0.38364473 4283369429
1.0813571 -2.8317943 -0.37218902 4283369429
1.1157219 -2.9233174 0.49558446 4283369429
1.0869675 -2.8479774 -0.26669657 4283369429
1.1167647 -2.9275832 0.60906237 4283369429
1.087916 -2.8534522 -0.16004337 4283369429
1.12623 -2.9554937 0.73019111 4283369429
1.0889573 -2.8591819 -0.053404365 4283369429
1.1092615 -2.9140208 0.83546793 4283369429
1.0378786 -2.7365499 -0.78422177 4283369429
1.0887177 -2.8721077 0.053613789 4283369429
1.0535829 -2.780884 -0.68655062 4283369429
1.0960896 -2.8930786 0.16213681 4283369429
1.0588549 -2.7962732 -0.58120424 4283369429
1.0959359 -2.8957233 0.27088004 4283369429
1.0588198 -2.7991302 -0.47399649 4283369429
1.0937226 -2.892926 0.37974492 4283369429
1.0707643 -2.8336945 -0.37194526 4283369429
1.1011342 -2.9140661 0.49339435 4283369429
1.0720919 -2.8387072 -0.26547641 4283369429
1.0961388 -2.9039125 0.60333806 4283369429
1.0680789 -2.8310707 -0.15857796 4283369429
1.110406 -2.9448199 0.72659194 4283369429
1.0752368 -2.8515506 -0.053194933 4283369429
1.0934604 -2.9014137 0.83080912 4283369429
1.0317136 -2.7491996 -0.78680992 4283369429
1.0735667 -2.8607252 0.053334557 4283369429
1.0381962 -2.767941 -0.68250149 4283369429
1.077571 -2.874445 0.16088074 4283369429
1.044955 -2.7889216 -0.57891452 4283369429
1.0844234 -2.8957999 0.27053142 4283369429
1.048146 -2.7989264 -0.47337076 4283369429
1.0785568 -2.8816638 0.37779501 4283369429
1.0537108 -2.8167782 -0.36926416 4283369429
1.0868044 -2.9067907 0.49151716 4283369429
1.0558995 -2.8256352 -0.26390758 4283369429
1.0844413 -2.9020143 0.60219324 4283369429
1.0544922 -2.8233707 -0.15794992 4283369429
1.0876857 -2.9137979 0.71804374 4283369429
1.0610826 -2.8440454 -0.052985508 4283369429
1.0813013 -2.8997824 0.8292563 4283369429
1.021246 -2.7489836 -0.78577471 4283369429
1.0621824 -2.8607056 0.053264745 4283369429
1.0251377 -2.7624133 -0.68025202 4283369429
1.0631689 -2.8648951 0.16014804 4283369429
1.0261425 -2.7666013 -0.57357186 4283369429
1.0692749 -2.8844342 0.26913694 4283369429
1.0369972 -2.7988629 -0.472745 4283369429
1.0657339 -2.877965 0.37682006 4283369429
1.0349145 -2.7962375 -0.36609554 4283369429
1.0689315 -2.8881478 0.48776269 4283369429
1.0430676 -2.8197777 -0.26303601 4283369429
1.0715818 -2.8984163 0.60066676 4283369429
1.0418609 -2.8195407 -0.15753125 4283369429
1.0700819 -2.8974681 0.71309483 4283369429
1.0433322 -2.825038 -0.052566648 4283369429
1.0663276 -2.8888535 0.82511514 4283369429
1.0083119 -2.7434657 -0.7831865 4283369429
1.0471715 -2.8491969 0.052985508 4283369429
1.0146275 -2.7621393 -0.67935222 4283369429
1.0490322 -2.8573394 0.15952002 4283369429
1.0097159 -2.7517354 -0.56975567 4283369429
1.0495954 -2.8619616 0.26669657 4283369429
1.0263498 -2.7985771 -0.47211927 4283369429
1.0520856 -2.8703003 0.3753576 4283369429
1.0263188 -2.8015177 -0.36633927 4283369429
1.0520517 -2.873312 0.48463401 4283369429
1.0222631 -2.7934649 -0.26024702 4283369429
1.0538681 -2.8798296 0.59608734 4283369429
1.0297613 -2.8154771 -0.15711255 4283369429
1.0571222 -2.8918493 0.71084529 4283369429
1.0279747 -2.8136365 -0.052287407 4283369429
1.0476227 -2.8689678 0.81838584 4283369429
0.99231166 -2.7308013 -0.77852774 4283369429
1.0280317 -2.8306417 0.052566648 4283369429
0.99736536 -2.7476966 -0.67485321 4283369429
1.0344636 -2.8499007 0.15889199 4283369429
0.99828464 -2.7517266 -0.56899244 4283369429
1.0350237 -2.8545508 0.26565069 4283369429
1.0061741 -2.7764971 -0.46773914 4283369429
1.0356486 -2.8593874 0.37340769 4283369429
1.0106361 -2.790329 -0.36438939 4283369429
1.0381514 -2.8678617 0.48306966 4283369429
1.0120176 -2.7971928 -0.26024702 4283369429
1.037462 -2.8690848 0.59303439 4283369429
1.01487 -2.8081405 -0.15648453 4283369429
1.0405548 -2.87921 0.70679623 4283369429
1.0149379 -2.8098624 -0.052147791 4283369429
1.0318522 -2.8582518 0.81424475 4283369429
0.9806354 -2.7268057 -0.77645719 4283369429
1.0132288 -2.8189802 0.052287407 4283369429
0.98231858 -2.734483 -0.67080402 4283369429
1.0196054 -2.8382783 0.15805461 4283369429
0.98782724 -2.7513266 -0.5682292 4283369429
1.0215143 -2.8467157 0.26460484 4283369429
0.99162668 -2.7649429 -0.46523616 4283369429
1.0167832 -2.8366444 0.36999539 4283369429
0.99802834 -2.7843218 -0.36317068 4283369429
1.0253043 -2.8619905 0.48150533 4283369429
0.99467701 -2.7780242 -0.25815532 4283369429
1.0213271 -2.8540246 0.5892182 4283369429
0.99479049 -2.7814009 -0.15480977 4283369429
1.0224696 -2.8587909 0.70094746 4283369429
