# .PCD v0.7 - Point Cloud Data file format
VERSION 0.7
FIELDS x y z rgb
SIZE 4 4 4 4
TYPE F F F U
COUNT 1 1 1 1
WIDTH 1098
HEIGHT 1
VIEWPOINT 0 0 0 1 0 0 0
POINTS 1098
DATA ascii
6.1717186 -1.0982392 1.2185063 4294901760
3.8107049 -0.67878985 -0.20285419 4294901760
6.0873408 -1.0854168 1.4275393 4294901760
4.2443995 -0.75680703 -0.075254776 4294901760
6.0210853 -1.0746872 1.6388422 4294901760
2.3918605 -0.43036363 -0.65118873 4294901760
4.6976867 -0.84609371 0.083317786 4294901760
2.5545375 -0.46055442 -0.59926957 4294901760
5.3481479 -0.96517485 0.2848123 4294901760
2.7338424 -0.49337378 -0.53998947 4294901760
6.2525263 -1.129514 0.55587929 4294901760
2.941047 -0.53182793 -0.47337076 4294901760
6.2936935 -1.1392196 0.78532612 4294901760
3.1955795 -0.57900691 -0.3987565 4294901760
6.2352834 -1.1308948 1.0036837 4294901760
3.4738402 -0.6300512 -0.30887994 4294901760
6.1388721 -1.1145154 1.212782 4294901760
3.7827661 -0.68744516 -0.20149344 4294901760
6.0758457 -1.1052638 1.4257398 4294901760
4.1983156 -0.76447719 -0.074486867 4294901760
6.0095043 -1.0953628 1.6367717 4294901760
2.3903437 -0.43871015 -0.65118873 4294901760
4.6868377 -0.86104131 0.08317817 4294901760
2.541415 -0.467354 -0.59657019 4294901760
5.3565321 -0.98600698 0.28544036 4294901760
2.735965 -0.50362444 -0.54075271 4294901760
6.2367892 -1.1491663 0.55483341 4294901760
2.9391725 -0.54209083 -0.47337076 4294901760
6.277966 -1.1590195 0.78386366 4294901760
3.1818268 -0.58799362 -0.3972941 4294901760
6.2274127 -1.1519344 1.0030578 4294901760
3.475538 -0.64289808 -0.30922857 4294901760
6.1388049 -1.1366521 1.2135452 4294901760
3.7823074 -0.70100927 -0.20159812 4294901760
6.0585389 -1.1239777 1.4225905 4294901760
4.2034855 -0.78058767 -0.07462649 4294901760
5.9980469 -1.114921 1.6347013 4294901760
2.385 -0.44634056 -0.65015346 4294901760
4.6955967 -0.87960523 0.083387598 4294901760
2.5474293 -0.47765887 -0.59836978 4294901760
5.3255754 -0.99954075 0.28397492 4294901760
2.7187538 -0.51027447 -0.53769976 4294901760
6.2249074 -1.1694583 0.55413622 4294901760
2.9333797 -0.55161697 -0.472745 4294901760
6.2660789 -1.1794577 0.78288871 4294901760
3.1739028 -0.59799415 -0.39656287 4294901760
6.2020011 -1.1696382 0.99961638 4294901760
3.469357 -0.65428758 -0.30887994 4294901760
6.1270838 -1.1566168 1.2120188 4294901760
3.7759125 -0.71346611 -0.20138879 4294901760
6.0507488 -1.1443946 1.4216906 4294901760
4.1771579 -0.79079235 -0.074207634 4294901760
5.9941187 -1.1358513 1.6347013 4294901760
2.3758371 -0.45321515 -0.64808291 4294901760
4.686605 -0.89486551 0.083282888 4294901760
2.5534031 -0.48801148 -0.60016942 4294901760
5.3102832 -1.0158726 0.28334689 4294901760
2.7208126 -0.52049935 -0.538463 4294901760
6.2129598 -1.1896813 0.55343896 4294901760
2.9430766 -0.56408411 -0.47462222 4294901760
6.2580242 -1.2005752 0.7824012 4294901760
3.1795938 -0.61056691 -0.39753783 4294901760
6.1823616 -1.1882973 0.99711335 4294901760
3.4592259 -0.66488975 -0.30818272 4294901760
6.1133699 -1.1761429 1.2101108 4294901760
3.7890885 -0.72966337 -0.20222615 4294901760
6.0428901 -1.1647711 1.4207909 4294901760
4.178299 -0.80612618 -0.074277438 4294901760
5.9635611 -1.1516395 1.6274542 4294901760
2.3686316 -0.45998633 -0.64653003 4294901760
4.6659451 -0.90696788 0.082968742 4294901760
2.5479448 -0.49573183 -0.59926957 4294901760
5.3421736 -1.0403488 0.28523099 4294901760
2.7190716 -0.52951908 -0.538463 4294901760
6.1933355 -1.2072282 0.55204445 4294901760
2.9256792 -0.57081443 -0.47211927 4294901760
6.2462153 -1.219799 0.78142631 4294901760
3.1736553 -0.62034577 -0.39705035 4294901760
6.1783867 -1.2087921 0.99711335 4294901760
3.4472253 -0.6744445 -0.30731115 4294901760
6.0959487 -1.193768 1.2074393 4294901760
3.7827282 -0.74145621 -0.20201682 4294901760
6.0351701 -1.1840532 1.419891 4294901760
4.1913009 -0.82306015 -0.074556686 4294901760
5.9597096 -1.171409 1.6274542 4294901760
2.3708017 -0.46900135 -0.64756525 4294901760
4.6647124 -0.92363793 0.08300364 4294901760
2.5347297 -0.50234973 -0.59657019 4294901760
5.3032455 -1.0519948 0.28334689 4294901760
2.7133553 -0.53824317 -0.53769976 4294901760
6.1714964 -1.2253476 0.55047566 4294901760
2.9236691 -0.58102345 -0.47211927 4294901760
6.2224498 -1.2377223 0.7789889 4294901760
3.1792581 -0.63297057 -0.39802533 4294901760
6.1644435 -1.228421 0.99554908 4294901760
3.4487579 -0.6872521 -0.30765978 4294901760
6.0782676 -1.2123513 1.2047681 4294901760
3.7664065 -0.75191873 -0.20128411 4294901760
6.029089 -1.2047309 1.4194412 4294901760
4.1766367 -0.83533239 -0.07434725 4294901760
5.9442191 -1.1899301 1.6243484 4294901760
2.3748317 -0.47841871 -0.64911819 4294901760
4.6634202 -0.94031042 0.083038554 4294901760
2.5329607 -0.51119453 -0.59657019 4294901760
5.2917104 -1.0689183 0.2829282 4294901760
2.7114599 -0.54771125 -0.53769976 4294901760
6.1847568 -1.2504359 0.55204445 4294901760
2.9274313 -0.59240085 -0.4730579 4294901760
6.202527 -1.2562827 0.77703899 4294901760
3.1614652 -0.64090925 -0.3960754 4294901760
6.1504388 -1.2479675 0.9939847 4294901760
3.4561012 -0.70126736 -0.30853131 4294901760
6.0739985 -1.233561 1.2047681 4294901760
3.7578874 -0.7638678 -0.20097008 4294901760
5.9981117 -1.2203296 1.4131424 4294901760
4.1619382 -0.84751236 -0.074137822 4294901760
5.9400291 -1.210672 1.6243484 4294901760
2.3750398 -0.48709372 -0.64963585 4294901760
4.6601095 -0.95658308 0.083038554 4294901760
2.5311608 -0.52003306 -0.59657019 4294901760
5.2820783 -1.0861765 0.28261417 4294901760
2.7056859 -0.55638182 -0.53693652 4294901760
6.1588883 -1.2675992 0.55012703 4294901760
2.9253457 -0.60261577 -0.4730579 4294901760
6.2019925 -1.2787274 0.77752644 4294901760
3.1611526 -0.65234196 -0.39631912 4294901760
6.134438 -1.2670317 0.99210751 4294901760
3.4477787 -0.71211815 -0.3080084 4294901760
6.0600429 -1.2527685 1.20286 4294901760
3.7532423 -0.77657598 -0.20086543 4294901760
5.9880915 -1.2400742 1.4117929 4294901760
4.1569972 -0.86162931 -0.074102923 4294901760
5.9282007 -1.2298294 1.6222779 4294901760
2.3657603 -0.49380222 -0.64756525 4294901760
4.6626143 -0.97407091 0.083143272 4294901760
2.5331452 -0.52966303 -0.59746999 4294901760
5.2743449 -1.1037896 0.28240484 4294901760
2.6960406 -0.56421447 -0.53541011 4294901760
6.146626 -1.2874563 0.54942977 4294901760
2.9251578 -0.61322886 -0.47337076 4294901760
6.1897202 -1.2987381 0.77655149 4294901760
3.1588562 -0.66337246 -0.39631912 4294901760
6.1125793 -1.28478 0.98929167 4294901760
3.4374726 -0.72250944 -0.30731115 4294901760
6.0556326 -1.2739145 1.20286 4294901760
3.7563717 -0.79090697 -0.20117943 4294901760
5.9760985 -1.2593614 1.4099932 4294901760
4.1500502 -0.87530923 -0.074033104 4294901760
5.9049697 -1.2465252 1.6171014 4294901760
2.3564637 -0.50045198 -0.64549476 4294901760
4.63767 -0.98576719 0.082759313 4294901760
2.5389051 -0.54012406 -0.59926957 4294901760
5.2743669 -1.1230255 0.28261417 4294901760
2.7094162 -0.57689273 -0.538463 4294901760
6.1381965 -1.3080734 0.54908115 4294901760
2.905612 -0.61972737 -0.47055492 4294901760
6.1773834 -1.3186789 0.77557659 4294901760
3.1662278 -0.67646867 -0.39753783 4294901760
6.102262 -1.30487 0.98835307 4294901760
3.4271362 -0.73283762 -0.30661389 4294901760
6.0319514 -1.2909362 1.1990438 4294901760
3.7555411 -0.80443269 -0.20128411 4294901760
5.9678559 -1.2793974 1.4090934 4294901760
4.1508803 -0.89062941 -0.074102923 4294901760
5.8911386 -1.2651017 1.6145133 4294901760
2.3622553 -0.51030618 -0.64756525 4294901760
4.6420188 -1.0036399 0.08289893 4294901760
2.5198624 -0.5452739 -0.59522051 4294901760
5.2645583 -1.1401614 0.28230017 4294901760
2.7035484 -0.58551568 -0.53769976 4294901760
6.1219101 -1.3269594 0.54803526 4294901760
2.9130833 -0.63196003 -0.47211927 4294901760
6.1533437 -1.3360218 0.77313918 4294901760
3.1599677 -0.6866737 -0.39705035 4294901760
6.0996003 -1.3265827 0.98866594 4294901760
3.430398 -0.74606633 -0.30713683 4294901760
6.0101433 -1.3082256 1.1956092 4294901760
3.7429528 -0.81541139 -0.20076075 4294901760
5.9595451 -1.2993909 1.4081936 4294901760
4.1496997 -0.90553951 -0.074137822 4294901760
5.879137 -1.2840091 1.6124427 4294901760
2.3642335 -0.51937783 -0.64860052 4294901760
4.6345811 -1.0189786 0.082829125 4294901760
2.5179436 -0.55406654 -0.59522051 4294901760
5.2507939 -1.1563835 0.28177682 4294901760
2.7053227 -0.59579384 -0.538463 4294901760
6.1114035 -1.3470341 0.54751235 4294901760
2.9031439 -0.64042264 -0.47086781 4294901760
6.1408892 -1.3557811 0.77216423 4294901760
3.1459212 -0.69513011 -0.39558792 4294901760
6.0872173 -1.3461601 0.98741448 4294901760
3.429718 -0.75846636 -0.30731115 4294901760
6.0017061 -1.3283484 1.1948459 4294901760
3.7322838 -0.82674396 -0.20034206 4294901760
5.9321423 -1.3151243 1.4027947 4294901760
4.1426096 -0.91915298 -0.074068017 4294901760
5.8689613 -1.303267 1.6108898 4294901760
2.3661771 -0.52846962 -0.64963585 4294901760
4.6290445 -1.034714 0.082794219 4294901760
2.5178959 -0.56327784 -0.5956704 4294901760
5.2428269 -1.1738323 0.28156745 4294901760
2.6955636 -0.60351783 -0.53693652 4294901760
6.1066647 -1.3683589 0.54751235 4294901760
2.9086006 -0.65228158 -0.47211927 4294901760
6.1283708 -1.3754694 0.77118921 4294901760
3.1396022 -0.70523709 -0.39510044 4294901760
6.0632086 -1.3630675 0.98428577 4294901760
3.4289935 -0.77087069 -0.30748546 4294901760
5.9951172 -1.3488592 1.1944643 4294901760
3.737169 -0.84152204 -0.20076075 4294901760
5.9256144 -1.3353949 1.4023448 4294901760
4.1354742 -0.93272781 -0.073998205 4294901760
5.866261 -1.3241708 1.6114074 4294901760
2.3398271 -0.5311662 -0.64290655 4294901760
4.6254044 -1.050866 0.082794219 4294901760
2.5235152 -0.5737918 -0.59746999 4294901760
5.2445402 -1.1934556 0.28188148 4294901760
2.6857831 -0.6111809 -0.53541011 4294901760
6.0785394 -1.3843577 0.54542065 4294901760
2.9024539 -0.66155261 -0.47149354 4294901760
6.1196618 -1.3959702 0.77070183 4294901760
3.1467977 -0.71840107 -0.39631912 4294901760
6.0468588 -1.3815837 0.98240852 4294901760
3.410743 -0.77928513 -0.30609095 4294901760
5.9884591 -1.3693403 1.1940827 4294901760
3.7419965 -0.85634428 -0.20117943 4294901760
5.8981223 -1.3508503 1.3969461 4294901760
4.1321931 -0.94715768 -0.073998205 4294901760
5.8390074 -1.3394566 1.6051958 4294901760
2.3473709 -0.5415017 -0.64549476 4294901760
4.6158628 -1.0656558 0.082689509 4294901760
2.521497 -0.58259696 -0.59746999 4294901760
5.2364507 -1.2108552 0.28167215 4294901760
2.6912844 -0.62232155 -0.53693652 4294901760
6.009614 -1.3907434 0.53966838 4294901760
2.8885803 -0.66900575 -0.46961632 4294901760
6.1031489 -1.414634 0.76923937 4294901760
3.1442707 -0.72938108 -0.39631912 4294901760
6.0381517 -1.4017895 0.98178285 4294901760
3.4099429 -0.79163671 -0.30626526 4294901760
5.9626069 -1.3853482 1.1898849 4294901760
3.7350938 -0.86849642 -0.20097008 4294901760
5.8933711 -1.3714304 1.3969461 4294901760
4.1210713 -0.95976156 -0.073858589 4294901760
5.8399405 -1.3611459 1.6067487 4294901760
2.347347 -0.55013299 -0.64601237 4294901760
4.6082211 -1.0808485 0.082619689 4294901760
2.5042708 -0.58783251 -0.59387076 4294901760
5.232192 -1.2291265 0.28167215 4294901760
2.6890957 -0.63171208 -0.53693652 4294901760
6.0182996 -1.4149044 0.54088855 4294901760
2.8900733 -0.67998958 -0.47024205 4294901760
6.0788512 -1.4313794 0.76680195 4294901760
3.1455698 -0.74126279 -0.3968066 4294901760
6.0332217 -1.422858 0.98178285 4294901760
3.4110372 -0.80444938 -0.30661389 4294901760
5.9577346 -1.4061531 1.1898849 4294901760
3.7164893 -0.87785596 -0.20013271 4294901760
5.9037199 -1.3955802 1.4005452 4294901760
4.1254802 -0.97598249 -0.073998205 4294901760
5.8558326 -1.3864186 1.6124427 4294901760
2.3510501 -0.55966556 -0.64756525 4294901760
4.6063647 -1.0973909 0.082654595 4294901760
2.5022035 -0.59657049 -0.59387076 4294901760
5.2181559 -1.2450651 0.28114879 4294901760
2.6906934 -0.64200616 -0.53769976 4294901760
6.1063433 -1.4581152 0.54925549 4294901760
2.8896036 -0.6905328 -0.47055492 4294901760
6.0776796 -1.4535135 0.76728946 4294901760
3.1294494 -0.74900401 -0.39510044 4294901760
6.0262966 -1.4434489 0.98146993 4294901760
3.4082084 -0.81635123 -0.30661389 4294901760
5.9756999 -1.4324327 1.1944643 4294901760
3.7134023 -0.8908236 -0.20013271 4294901760
5.951869 -1.4289174 1.4131424 4294901760
4.1220479 -0.99037707 -0.073998205 4294901760
5.9129419 -1.4217548 1.6295248 4294901760
2.352838 -0.56877679 -0.64860052 4294901760
4.6044507 -1.1139337 0.082689509 4294901760
2.5057878 -0.60667682 -0.59522051 4294901760
5.2001905 -1.2599801 0.28041607 4294901760
2.680804 -0.64954537 -0.53617334 4294901760
6.1399422 -1.4888117 0.55274171 4294901760
2.8890951 -0.70108104 -0.47086781 4294901760
6.099575 -1.4812781 0.77070183 4294901760
3.1229579 -0.75898564 -0.39461297 4294901760
6.0500131 -1.4714787 0.98616302 4294901760
3.4092097 -0.82918489 -0.30696252 4294901760
6.0240755 -1.4662838 1.2051498 4294901760
3.7083297 -0.90330762 -0.20002805 4294901760
5.9941778 -1.461223 1.4243901 4294901760
4.0991387 -1.0000203 -0.073649161 4294901760
5.9642448 -1.4561319 1.645054 4294901760
2.3339527 -0.57284188 -0.64394182 4294901760
4.600534 -1.1299995 0.082689509 4294901760
2.5074396 -0.61635029 -0.5961203 4294901760
5.199863 -1.2781712 0.28062543 4294901760
2.6670818 -0.65608531 -0.53388357 4294901760
6.1463151 -1.5130925 0.55378759 4294901760
2.8866303 -0.71116161 -0.47086781 4294901760
6.1579704 -1.5182419 0.77874517 4294901760
3.1223512 -0.76981276 -0.39485672 4294901760
6.1198969 -1.509988 0.99836493 4294901760
3.3908203 -0.83725929 -0.30556804 4294901760
6.0913453 -1.5051993 1.2196511 4294901760
3.7109704 -0.91768497 -0.20034206 4294901760
6.0403762 -1.4937232 1.4365374 4294901760
4.0919175 -1.0126472 -0.073579341 4294901760
6.0043879 -1.4870479 1.6574773 4294901760
2.3301656 -0.58011168 -0.64342415 4294901760
4.5812383 -1.1413816 0.082410261 4294901760
2.5034914 -0.62419051 -0.5956704 4294901760
5.1955957 -1.2954075 0.28062543 4294901760
2.6763206 -0.66777784 -0.53617334 4294901760
6.1934562 -1.5464985 0.55849403 4294901760
2.8823397 -0.7202512 -0.47055492 4294901760
6.2048979 -1.5516568 0.78532612 4294901760
3.1274843 -0.78208899 -0.39583167 4294901760
6.1761765 -1.5456197 1.0083766 4294901760
3.3841598 -0.8475309 -0.30521941 4294901760
6.1358342 -1.5378 1.2295732 4294901760
3.707907 -0.929986 -0.20034206 4294901760
6.114778 -1.5336572 1.4554334 4294901760
4.0924158 -1.0271845 -0.073649161 4294901760
6.066875 -1.5238936 1.6761122 4294901760
2.3338485 -0.58925438 -0.64497709 4294901760
4.5851827 -1.1585267 0.082549877 4294901760
2.4938505 -0.63057804 -0.59387076 4294901760
5.2007232 -1.3159853 0.28114879 4294901760
2.6740913 -0.67664915 -0.53617334 4294901760
6.1960192 -1.5689846 0.55919123 4294901760
2.8761055 -0.72883493 -0.46992919 4294901760
6.2535963 -1.5858876 0.7921508 4294901760
3.1208873 -0.79202455 -0.3953442 4294901760
6.2626443 -1.5905091 1.0233943 4294901760
3.3851929 -0.85972947 -0.30556804 4294901760
6.1972971 -1.5750644 1.2429299 4294901760
3.6912532 -0.93883055 -0.19960935 4294901760
6.1509352 -1.5655673 1.4653312 4294901760
4.0984945 -1.0439314 -0.073823676 4294901760
6.072751 -1.5479248 1.6792181 4294901760
2.3392627 -0.59931517 -0.64704764 4294901760
2.9365599 -0.7528879 0.052915696 4294901760
2.4954093 -0.64024794 -0.59477055 4294901760
5.2019014 -1.3356212 0.28146279 4294901760
2.6755164 -0.68695581 -0.53693652 4294901760
6.3564591 -1.633244 0.57418203 4294901760
2.8639784 -0.73641038 -0.46836486 4294901760
6.3076186 -1.623042 0.7997067 4294901760
3.1084917 -0.80043864 -0.39412549 4294901760
6.2666187 -1.6148247 1.0249587 4294901760
3.3860302 -0.87253511 -0.30591667 4294901760
6.2031684 -1.599629 1.2452196 4294901760
3.6860197 -0.95121074 -0.19950469 4294901760
6.1227903 -1.5811812 1.4599323 4294901760
4.0909534 -1.0572308 -0.073753871 4294901760
6.0542183 -1.5657274 1.6755946 4294901760
2.3334172 -0.60650516 -0.64601237 4294901760
2.4912734 -0.64846379 -0.59432071 4294901760
2.8546956 -0.74359244 0.15460044 4294901760
2.6617029 -0.69332165 -0.53464681 4294901760
6.2408257 -1.6267766 0.5642463 4294901760
2.8728588 -0.7493946 -0.47024205 4294901760
6.3211217 -1.6500638 0.80214405 4294901760
3.1075993 -0.81178612 -0.39436921 4294901760
6.2590322 -1.6361898 1.0246458 4294901760
3.3829639 -0.88434929 -0.30591667 4294901760
6.1728554 -1.6148131 1.2402586 4294901760
3.6884732 -0.96558881 -0.1998187 4294901760
6.1021528 -1.5985932 1.4563332 4294901760
4.0833697 -1.0704904 -0.073684059 4294901760
6.0449786 -1.5858706 1.6745592 4294901760
2.3275499 -0.61366159 -0.64497709 4294901760
2.933166 -0.77388066 0.052950602 4294901760
2.4965312 -0.65914589 -0.5961203 4294901760
2.6554704 -0.7016055 -0.53388357 4294901760
6.115685 -1.6169755 0.55343896 4294901760
2.866406 -0.75840759 -0.46961632 4294901760
6.3172426 -1.6726267 0.80238777 4294901760
3.100909 -0.82161182 -0.39388174 4294901760
6.2360988 -1.6534716 1.0218301 4294901760
3.3702269 -0.89359945 -0.3050451 4294901760
6.1690784 -1.6368539 1.2406402 4294901760
3.6928017 -0.98050839 -0.20023739 4294901760
6.0965357 -1.6198843 1.4563332 4294901760
4.071878 -1.0826819 -0.073544443 4294901760
6.0263376 -1.6034845 1.6709359 4294901760
2.3179286 -0.61978644 -0.64290655 4294901760
2.9207878 -0.78153014 0.05277608 4294901760
2.4885678 -0.66634423 -0.59477055 4294901760
2.8667972 -0.76815605 0.15554248 4294901760
2.6567976 -0.71188676 -0.53464681 4294901760
2.8134878 -0.75439817 0.25484338 4294901760
2.8561099 -0.76636094 -0.46836486 4294901760
6.2921934 -1.6895196 0.79995042 4294901760
3.1056905 -0.83449149 -0.39485672 4294901760
6.2264738 -1.6742035 1.0212044 4294901760
3.3573093 -0.90335757 -0.30417353 4294901760
6.1538477 -1.6558274 1.238732 4294901760
3.6816423 -0.99131554 -0.1998187 4294901760
6.0870805 -1.6401411 1.4554334 4294901760
4.0719357 -1.0979301 -0.073614255 4294901760
6.0095134 -1.6214912 1.66783 4294901760
2.3156414 -0.6282779 -0.64290655 4294901760
2.9238322 -0.79329169 0.052880794 4294901760
2.4843462 -0.67451632 -0.59432071 4294901760
2.8737354 -0.78077668 0.15606584 4294901760
2.6617486 -0.72367996 -0.53617334 4294901760
2.8551877 -0.7773428 -0.4686777 4294901760
6.274766 -1.7083446 0.79848802 4294901760
3.1008432 -0.84480554 -0.39461297 4294901760
6.2167797 -1.6948887 1.0205785 4294901760
3.3656683 -0.9182176 -0.30521941 4294901760
6.1250105 -1.6721666 1.2341527 4294901760
3.6625712 -1.000592 -0.19898133 4294901760
6.0772691 -1.6614125 1.4545335 4294901760
4.0757937 -1.1142464 -0.073753871 4294901760
6.0000901 -1.6414388 1.6667948 4294901760
2.32461 -0.63943136 -0.64601237 4294901760
2.9228325 -0.80453336 0.052915696 4294901760
2.4724634 -0.68102992 -0.59207118 4294901760
2.8708546 -0.79130411 0.15606584 4294901760
2.655421 -0.7319234 -0.53541011 4294901760
2.7926526 -0.77027363 0.2534489 4294901760
2.8600736 -0.7894069 -0.46992919 4294901760
6.2608085 -1.7292173 0.79751301 4294901760
3.0900729 -0.85404974 -0.39363801 4294901760
6.2029104 -1.7155567 1.019327 4294901760
3.3776419 -0.93479866 -0.30661389 4294901760
6.1248131 -1.6951077 1.2352976 4294901760
3.6667552 -1.0155029 -0.19940001 4294901760
6.0451412 -1.6753297 1.4482349 4294901760
4.0678287 -1.1281087 -0.073684059 4294901760
5.9940338 -1.6634191 1.6667948 4294901760
2.3222508 -0.64794719 -0.64601237 4294901760
2.9315634 -0.81795567 0.053125124 4294901760
2.4719479 -0.6901803 -0.59252107 4294901760
2.8680749 -0.80132049 0.15606584 4294901760
2.6375947 -0.73742223 -0.53235716 4294901760
2.8032415 -0.78426147 0.25466907 4294901760
2.8590631 -0.80041677 -0.47024205 4294901760
6.2509112 -1.7499908 0.79702556 4294901760
3.0908957 -0.86590183 -0.39412549 4294901760
6.1721578 -1.7302668 1.0152597 4294901760
3.3628483 -0.94335437 -0.30556804 4294901760
6.1128879 -1.715953 1.2341527 4294901760
3.6687775 -1.0305558 -0.19971403 4294901760
6.0277038 -1.694311 1.4455354 4294901760
4.0523148 -1.1390543 -0.073474631 4294901760
5.9733129 -1.6801475 1.6626536 4294901760
2.3146262 -0.65366441 -0.64445943 4294901760
2.9307592 -0.82821637 0.05316003 4294901760
2.4827721 -0.70208573 -0.5956704 4294901760
2.8807762 -0.8151775 0.15690321 4294901760
2.6390431 -0.7467739 -0.53312039 4294901760
2.8007638 -0.79306424 0.25466907 4294901760
2.8565345 -0.8093949 -0.47024205 4294901760
3.0899169 -0.87668872 -0.39436921 4294901760
6.1568847 -1.7480271 1.0136955 4294901760
3.3445351 -0.94956106 -0.30417353 4294901760
6.1055784 -1.7346121 1.233771 4294901760
3.6655216 -1.0420765 -0.19971403 4294901760
6.0186028 -1.712173 1.4446357 4294901760
4.0446696 -1.1513911 -0.073404826 4294901760
5.9602771 -1.6978294 1.660583 4294901760
2.3030441 -0.65908241 -0.64187121 4294901760
2.9124708 -0.83403748 0.052880794 4294901760
2.4746864 -0.70913756 -0.59432071 4294901760
2.8971121 -0.83073354 0.15794992 4294901760
2.6401947 -0.75706363 -0.53388357 4294901760
2.8132994 -0.80723208 0.25606358 4294901760
2.8385026 -0.815 -0.46773914 4294901760
2.7473853 -0.78935701 0.35098374 4294901760
3.0849302 -0.88692063 -0.39412549 4294901760
6.154542 -1.7706002 1.0143212 4294901760
3.3392854 -0.96067905 -0.30399922 4294901760
6.084393 -1.7515692 1.2307181 4294901760
3.6618617 -1.0548652 -0.19971403 4294901760
6.0088439 -1.7320918 1.4437358 4294901760
4.0444679 -1.166611 -0.073474631 4294901760
5.9376087 -1.7138028 1.6559243 4294901760
2.308151 -0.6692695 -0.64394182 4294901760
2.9133825 -0.84531325 0.052950602 4294901760
2.4665813 -0.71614134 -0.59297097 4294901760
2.9057026 -0.84418452 0.15857796 4294901760
2.637536 -0.76627493 -0.53388357 4294901760
2.8257699 -0.82149684 0.25745806 4294901760
2.8375371 -0.82545483 -0.46805197 4294901760
2.7236474 -0.79283941 0.3483026 4294901760
3.0856271 -0.898794 -0.39461297 4294901760
6.1445312 -1.7909676 1.0136955 4294901760
3.3454754 -0.97511721 -0.30487078 4294901760
6.0612793 -1.7678497 1.2272835 4294901760
3.6504879 -1.0654029 -0.19929534 4294901760
5.9990211 -1.7519634 1.4428362 4294901760
4.04421 -1.1818436 -0.073544443 4294901760
5.9315906 -1.7345183 1.6559243 4294901760
2.3095081 -0.67841142 -0.64497709 4294901760
2.9065773 -0.85434985 0.052880794 4294901760
2.4640665 -0.72474688 -0.59297097 4294901760
2.9104018 -0.85657781 0.15899664 4294901760
2.6423786 -0.77769428 -0.53541011 4294901760
2.8305302 -0.83360714 0.25815532 4294901760
2.8441124 -0.83814669 -0.46961632 4294901760
2.7379994 -0.8073951 0.35049626 4294901760
3.0767593 -0.90787405 -0.39388174 4294901760
6.1287694 -1.809608 1.0121311 4294901760
3.3382297 -0.98566061 -0.30452216 4294901760
6.0550718 -1.7889966 1.2272835 4294901760
3.6429164 -1.0770065 -0.199086 4294901760
5.9704442 -1.7662596 1.4374373 4294901760
4.04006 -1.1959532 -0.073544443 4294901760
5.9254999 -1.7552131 1.6559243 4294901760
2.3071258 -0.68646896 -0.64497709 4294901760
2.9074104 -0.86563176 0.052950602 4294901760
2.4652569 -0.7344566 -0.59387076 4294901760
2.9152019 -0.86850548 0.15941535 4294901760
2.6208332 -0.78130436 -0.53159386 4294901760
2.8390584 -0.84689957 0.25920117 4294901760
2.8373837 -0.84693933 -0.46899059 4294901760
2.740871 -0.81865197 0.35122749 4294901760
3.0640614 -0.91576606 -0.39266306 4294901760
6.107594 -1.8253965 1.0096282 4294901760
3.3462217 -1.0007325 -0.30556804 4294901760
6.0469093 -1.8095591 1.2269019 4294901760
3.6525276 -1.0937266 -0.1998187 4294901760
5.9567757 -1.7848521 1.4356377 4294901760
4.0322404 -1.208196 -0.073474631 4294901760
5.915946 -1.7737436 1.6548891 4294901760
2.2936175 -0.69117379 -0.64187121 4294901760
2.9045238 -0.87526834 0.052950602 4294901760
2.4590764 -0.7415024 -0.59297097 4294901760
2.923625 -0.8821376 0.16004337 4294901760
2.6218491 -0.79158288 -0.53235716 4294901760
2.843714 -0.85910934 0.25989842 4294901760
2.8402326 -0.85805762 -0.46992919 4294901760
2.7533424 -0.83233196 0.3531774 4294901760
3.0705082 -0.92879558 -0.39388174 4294901760
6.0898409 -1.8432714 1.007751 4294901760
3.3274534 -1.0077868 -0.30417353 4294901760
6.040875 -1.8296014 1.2269019 4294901760
3.6507921 -1.1064119 -0.19992337 4294901760
5.9508243 -1.8045956 1.4356377 4294901760
4.0165176 -1.21878 -0.07326521 4294901760
5.891233 -1.7887703 1.6497126 4294901760
2.287617 -0.69764864 -0.64083594 4294901760
2.8976259 -0.88423431 0.052880794 4294901760
2.4602008 -0.75121981 -0.59387076 4294901760
2.9358087 -0.89700657 0.16088074 4294901760
2.62672 -0.80256766 -0.53388357 4294901760
2.84466 -0.86969978 0.26024702 4294901760
2.8164413 -0.86161011 -0.46648762 4294901760
2.7618089 -0.845424 0.3546398 4294901760
3.0691454 -0.9400894 -0.39412549 4294901760
3.3202832 -1.0176476 -0.3038249 4294901760
6.0175595 -1.8454962 1.2234674 4294901760
3.6449983 -1.1185629 -0.1998187 4294901760
5.937037 -1.8230686 1.433838 4294901760
5.8757205 -1.8064852 1.6471245 4294901760
2.2888596 -0.7067697 -0.64187121 4294901760
2.8907003 -0.89316291 0.052810986 4294901760
2.444531 -0.75577372 -0.59072149 4294901760
2.944108 -0.91079062 0.16150878 4294901760
2.6239026 -0.8117317 -0.53388357 4294901760
2.8568332 -0.88433754 0.26164153 4294901760
2.8115299 -0.87085158 -0.46617478 4294901760
2.7550492 -0.8538841 0.35415235 4294901760
3.0696373 -0.95197296 -0.39461297 4294901760
2.7242887 -0.84539282 0.45178279 4294901760
3.3167107 -1.0292314 -0.3038249 4294901760
5.9867058 -1.8589215 1.2185063 4294901760
3.6239059 -1.1259463 -0.19887665 4294901760
5.9269152 -1.8426247 1.4329382 4294901760
2.8106935 -0.87435728 -0.051379886 4294901760
5.8693786 -1.826984 1.6471245 4294901760
2.2974417 -0.7182135 -0.64497709 4294901760
2.8837481 -0.90205383 0.05274117 4294901760
2.4455974 -0.76546633 -0.59162128 4294901760
2.9485347 -0.92344958 0.16192746 4294901760
2.6248 -0.82205933 -0.53464681 4294901760
2.8689384 -0.89907074 0.26303601 4294901760
2.8178973 -0.88361561 -0.46773914 4294901760
2.7596276 -0.86587286 0.35512727 4294901760
3.0530381 -0.95852 -0.39290681 4294901760
2.6987064 -0.8477928 0.44802836 4294901760
3.3167179 -1.0425758 -0.30417353 4294901760
5.9820538 -1.8803966 1.2188879 4294901760
3.6123328 -1.1361921 -0.19845797 4294901760
5.9055762 -1.858622 1.4293389 4294901760
2.7847357 -0.87695521 -0.050961025 4294901760
5.8592806 -1.8462998 1.6460892 4294901760
2.2947941 -0.7266292 -0.64497709 4294901760
2.8882074 -0.91452914 0.052880794 4294901760
2.4447684 -0.77458704 -0.59207118 4294901760
2.949101 -0.93494338 0.16213681 4294901760
2.6067984 -0.82692516 -0.53159386 4294901760
2.8732204 -0.91199106 0.2637333 4294901760
2.8221705 -0.89632952 -0.46899059 4294901760
2.7755082 -0.88150942 0.35756469 4294901760
3.0515652 -0.96977234 -0.39315054 4294901760
2.7126729 -0.86259532 0.4508442 4294901760
3.318754 -1.0559592 -0.30469647 4294901760
5.9807339 -1.9040961 1.2200328 4294901760
3.6214652 -1.153668 -0.19919068 4294901760
5.8950109 -1.879071 1.4284393 4294901760
2.7587948 -0.87938273 -0.050542168 4294901760
5.845438 -1.8643934 1.6440187 4294901760
2.2793658 -0.73050797 -0.64135361 4294901760
2.8886445 -0.92633003 0.052950602 4294901760
2.4493349 -0.7859239 -0.59387076 4294901760
2.9610333 -0.95011377 0.16297418 4294901760
2.607635 -0.83721989 -0.53235716 4294901760
2.8776069 -0.92445254 0.26443052 4294901760
2.8115022 -0.90375721 -0.46773914 4294901760
2.7873764 -0.89653885 0.35951459 4294901760
3.0479903 -0.98095042 -0.39315054 4294901760
2.7002432 -0.86903322 0.44927984 4294901760
3.3017726 -1.0632625 -0.30347627 4294901760
5.9684448 -1.9231546 1.2188879 4294901760
3.6193171 -1.1669151 -0.19929534 4294901760
5.8809977 -1.8972436 1.4266397 4294901760
2.749999 -0.88716549 -0.050437454 4294901760
5.8241873 -1.8800385 1.6398776 4294901760
2.2749641 -0.73786396 -0.64083594 4294901760
2.8665352 -0.92973465 0.052601553 4294901760
2.4430082 -0.79283881 -0.59297097 4294901760
2.9728959 -0.96537882 0.16381156 4294901760
2.6084309 -0.8475306 -0.53312039 4294901760
2.8743625 -0.93449163 0.26443052 4294901760
2.7990971 -0.91002184 -0.46617478 4294901760
2.79949 -0.91068995 0.3614645 4294901760
3.048496 -0.99228138 -0.39363801 4294901760
2.717854 -0.88518256 0.45272139 4294901760
3.2980409 -1.0747812 -0.30347627 4294901760
5.9508348 -1.9392865 1.2165983 4294901760
3.6116297 -1.1776725 -0.199086 4294901760
5.8672633 -1.9143175 1.42484 4294901760
2.7411826 -0.89489758 -0.05033274 4294901760
5.8102431 -1.897958 1.6378069 4294901760
2.2798476 -0.74781239 -0.64290655 4294901760
2.8670721 -0.94098228 0.052671362 4294901760
2.436523 -0.80014563 -0.59207118 4294901760
2.9827902 -0.98011476 0.16454425 4294901760
2.6056061 -0.85617584 -0.53312039 4294901760
2.8939602 -0.95148563 0.26652226 4294901760
2.7959034 -0.91978699 -0.46617478 4294901760
2.796294 -0.92045635 0.3614645 4294901760
3.0525553 -1.0054007 -0.39461297 4294901760
2.7241285 -0.89775574 0.45428574 4294901760
3.298243 -1.0869592 -0.3038249 4294901760
5.925384 -1.9538988 1.212782 4294901760
3.6018066 -1.1883947 -0.19877198 4294901760
5.8605447 -1.9347864 1.42484 4294901760
2.7494347 -0.90822399 -0.050542168 4294901760
5.8035831 -1.9182277 1.6378069 4294901760
2.2772233 -0.75576597 -0.64290655 4294901760
2.8599746 -0.94972396 0.052601553 4294901760
2.4318657 -0.80803126 -0.59162128 4294901760
2.986932 -0.99304104 0.16496295 4294901760
2.6063275 -0.86650455 -0.53388357 4294901760
2.9057455 -0.96661288 0.26791674 4294901760
2.7982981 -0.9314124 -0.46711335 4294901760
2.8043644 -0.93397528 0.36292693 4294901760
3.0377276 -1.0122844 -0.39315054 4294901760
2.737844 -0.91288286 0.45710155 4294901760
3.2982092 -1.0997262 -0.30417353 4294901760
5.9166651 -1.9739486 1.2124004 4294901760
3.5976367 -1.20096 -0.19877198 4294901760
5.850059 -1.953997 1.4239402 4294901760
2.750041 -0.91908348 -0.050611977 4294901760
5.8005161 -1.9396999 1.6388422 4294901760
2.2782338 -0.7649402 -0.64394182 4294901760
2.8680155 -0.96352243 0.052810986 4294901760
2.4308774 -0.81713617 -0.59207118 4294901760
2.9834473 -1.0034614 0.16496295 4294901760
2.5995653 -0.8743453 -0.53312039 4294901760
2.9136837 -0.98056298 0.26896262 4294901760
2.8025184 -0.9436962 -0.46836486 4294901760
2.8161366 -0.94882905 0.36487687 4294901760
3.0341756 -1.0228817 -0.39315054 4294901760
2.7327688 -0.92180264 0.45678869 4294901760
3.2962382 -1.111869 -0.30434784 4294901760
5.9041591 -1.9927064 1.2112557 4294901760
3.5877459 -1.2115939 -0.19845797 4294901760
5.85428 -1.9781485 1.4266397 4294901760
2.7354498 -0.92483461 -0.050402552 4294901760
5.8339696 -1.9735548 1.6502303 4294901760
2.2609162 -0.76791781 -0.63980073 4294901760
2.8627412 -0.97288424 0.05277608 4294901760
2.4335451 -0.82749856 -0.59342086 4294901760
2.9950531 -1.0190159 0.16580033 4294901760
2.5890627 -0.88088459 -0.53159386 4294901760
2.9140153 -0.99201173 0.26931125 4294901760
2.8029468 -0.9547469 -0.46899059 4294901760
2.820323 -0.96121496 0.36585179 4294901760
3.0249503 -1.0315448 -0.39241934 4294901760
2.7370129 -0.93388784 0.45804018 4294901760
3.2904513 -1.1227249 -0.30417353 4294901760
3.5986149 -1.229275 -0.19929534 4294901760
5.9395394 -2.0300848 1.4491347 4294901760
2.7359893 -0.93567151 -0.05047236 4294901760
5.883707 -2.0132959 1.6662771 4294901760
2.2618759 -0.77706039 -0.64083594 4294901760
2.8574369 -0.98222113 0.05274117 4294901760
2.4287992 -0.83535439 -0.59297097 4294901760
3.0028088 -1.0333638 0.16642836 4294901760
2.589685 -0.89119452 -0.53235716 4294901760
2.921838 -1.0060695 0.2703571 4294901760
2.7865238 -0.96002114 -0.46680051 4294901760
2.8282111 -0.97493565 0.36731425 4294901760
3.0269606 -1.0440392 -0.39315054 4294901760
2.7524092 -0.94988036 0.46116886 4294901760
3.2789786 -1.1316041 -0.30347627 4294901760
3.5943019 -1.2418292 -0.19929534 4294901760
6.0024047 -2.0749998 1.466231 4294901760
2.7327063 -0.9452163 -0.05047236 4294901760
5.9460168 -2.0578306 1.6859473 4294901760
2.2627993 -0.7862193 -0.64187121 4294901760
2.8407693 -0.987593 0.052496839 4294901760
2.4185061 -0.84126645 -0.59117132 4294901760
2.9991834 -1.0438392 0.16642836 4294901760
2.5902667 -0.90151942 -0.53312039 4294901760
2.9295976 -1.0201938 0.27140298 4294901760
2.7775595 -0.96779215 -0.46586189 4294901760
2.8322885 -0.98741573 0.36828917 4294901760
3.0326695 -1.0578681 -0.39436921 4294901760
2.7677271 -0.96599162 0.46429756 4294901760
3.2712462 -1.1417297 -0.30312768 4294901760
2.6764352 -0.93465298 0.55105644 4294901760
3.5729761 -1.2484387 -0.19835329 4294901760
6.0981407 -2.1319547 1.4914254 4294901760
2.7369404 -0.95739049 -0.050611977 4294901760
6.0409074 -2.1143119 1.7149351 4294901760
2.2600412 -0.79411304 -0.64187121 4294901760
2.8467369 -1.0008192 0.052671362 4294901760
2.4155548 -0.84970343 -0.59117132 4294901760
2.9955215 -1.054302 0.16642836 4294901760
2.5834005 -0.90925199 -0.53235716 4294901760
2.9448113 -1.0370318 0.27314609 4294901760
2.7834797 -0.98076397 -0.46742624 4294901760
2.8363132 -0.99993652 0.36926416 4294901760
3.0102379 -1.0618441 -0.39193183 4294901760
2.7792404 -0.98090643 0.46680051 4294901760
3.2766352 -1.1564571 -0.30399922 4294901760
2.6990733 -0.95314193 0.55639905 4294901760
3.5704796 -1.2615687 -0.19845797 4294901760
6.1935506 -2.1896021 1.5166199 4294901760
2.733582 -0.96693838 -0.050611977 4294901760
6.1281905 -2.1689024 1.7418523 4294901760
2.2681777 -0.80587786 -0.64497709 4294901760
2.8526471 -1.0140992 0.052845888 4294901760
2.4217544 -0.86139548 -0.59342086 4294901760
2.9899414 -1.0640824 0.16632369 4294901760
2.5802107 -0.91826433 -0.53235716 4294901760
2.9561889 -1.0526515 0.27454057 4294901760
2.7800393 -0.99047416 -0.46742624 4294901760
2.8440244 -1.0138302 0.37072656 4294901760
3.0065131 -1.0723453 -0.39193183 4294901760
2.7702181 -0.98861003 0.46586189 4294901760
2.6975787 -0.96321797 0.5567807 4294901760
3.5735774 -1.2767121 -0.19887665 4294901760
6.248261 -2.233511 1.5319167 4294901760
2.7226586 -0.97378075 -0.05047236 4294901760
6.1987948 -2.2182693 1.7641107 4294901760
2.2508059 -0.80856538 -0.64083594 4294901760
2.8453259 -1.0226978 0.05277608 4294901760
2.4187329 -0.86984372 -0.59342086 4294901760
2.9862089 -1.0745126 0.16632369 4294901760
2.5769897 -0.92726523 -0.53235716 4294901760
2.9562459 -1.0643139 0.2748892 4294901760
2.7839987 -1.0028501 -0.4686777 4294901760
2.8628781 -1.0318285 0.37365144 4294901760
3.0176909 -1.0882207 -0.39388174 4294901760
2.7760408 -1.001626 0.46742624 4294901760
3.1391666 -1.1326458 -0.29197174 4294901760
2.7052796 -0.9766283 0.55907035 4294901760
3.5728559 -1.2905353 -0.199086 4294901760
6.3265643 -2.2864382 1.5530621 4294901760
2.7154815 -0.98191863 -0.050402552 4294901760
6.2600451 -2.2648687 1.7837809 4294901760
2.2479696 -0.81641716 -0.64083594 4294901760
2.8342211 -1.0298918 0.052636456 4294901760
2.4120188 -0.87694961 -0.59252107 4294901760
2.9899476 -1.0876609 0.16674237 4294901760
2.5737371 -0.93625504 -0.53235716 4294901760
2.9637461 -1.0787152 0.27593508 4294901760
2.7674882 -1.0078305 -0.46648762 4294901760
2.8741801 -1.0472523 0.37560135 4294901760
3.0101438 -1.0973879 -0.39339426 4294901760
2.7873738 -1.0167254 0.46992919 4294901760
3.2680886 -1.1920714 -0.30434784 4294901760
2.7036984 -0.98673856 0.559452 4294901760
3.5683296 -1.302999 -0.199086 4294901760
6.4027433 -2.3392706 1.5737575 4294901760
2.7195501 -0.9941377 -0.050542168 4294901760
6.3301158 -2.3152409 1.8060393 4294901760
2.2487333 -0.82559085 -0.64187121 4294901760
2.8268547 -1.0383998 0.052566648 4294901760
2.4016266 -0.88267487 -0.59072149 4294901760
2.9842584 -1.097402 0.1666377 4294901760
2.5778239 -0.94794369 -0.53388357 4294901760
2.9786611 -1.0959338 0.27767819 4294901760
2.7602463 -1.0161197 -0.46586189 4294901760
2.870507 -1.0572786 0.37560135 4294901760
3.006295 -1.1078886 -0.39339426 4294901760
2.8004885 -1.0325996 0.472745 4294901760
3.260169 -1.2020935 -0.30399922 4294901760
2.7020795 -0.99684972 0.55983365 4294901760
6.4841132 -2.3946874 1.5958028 4294901760
2.7160633 -1.0036247 -0.050542168 4294901760
6.4144068 -2.3714883 1.8324389 4294901760
2.2458377 -0.83343524 -0.64187121 4294901760
2.8307114 -1.0510453 0.052706268 4294901760
2.4003575 -0.89173132 -0.59117132 4294901760
2.9691768 -1.1036371 0.16600966 4294901760
2.5744991 -0.95693624 -0.53388357 4294901760
2.9934916 -1.1132696 0.2794213 4294901760
2.7566824 -1.0257487 -0.46586189 4294901760
2.8705196 -1.0686773 0.37608883 4294901760
2.9912479 -1.1142184 -0.39193183 4294901760
2.8079731 -1.0465078 0.47462222 4294901760
3.2596869 -1.2148577 -0.30434784 4294901760
2.7169788 -1.0131352 0.56364983 4294901760
3.057647 -1.1407748 -0.17103392 4294901760
6.5505681 -2.4452484 1.6142488 4294901760
2.7162902 -1.0144987 -0.050611977 4294901760
6.4947615 -2.4269998 1.8578032 4294901760
2.2519586 -0.84466177 -0.64445943 4294901760
2.8307698 -1.0623251 0.05277608 4294901760
2.3972301 -0.9001047 -0.59117132 4294901760
2.9617612 -1.1120731 0.16580033 4294901760
2.5564404 -0.96039355 -0.53083062 4294901760
2.9970474 -1.1265161 0.28011855 4294901760
2.7623298 -1.0388417 -0.46742624 4294901760
2.8853512 -1.0856818 0.37852621 4294901760
2.9873402 -1.1246529 -0.39193183 4294901760
2.8007898 -1.0544217 0.47399649 4294901760
3.2554264 -1.2262287 -0.30434784 4294901760
2.731797 -1.0295365 0.56746602 4294901760
3.0629902 -1.1549646 -0.17155728 4294901760
6.6386275 -2.5045567 1.6380936 4294901760
2.7091691 -1.0220889 -0.050542168 4294901760
6.5625877 -2.4771779 1.879544 4294901760
2.2453837 -0.85114801 -0.64342415 4294901760
2.8291013 -1.0724154 0.052810986 4294901760
2.4051647 -0.91219562 -0.59387076 4294901760
2.9690652 -1.1266562 0.16642836 4294901760
2.5604141 -0.97209871 -0.53235716 4294901760
2.9930968 -1.1369708 0.28011855 4294901760
2.7644095 -1.0501007 -0.46836486 4294901760
2.9040017 -1.1037068 0.38145107 4294901760
2.9891608 -1.1366698 -0.39266306 4294901760
2.8100162 -1.069109 0.47618657 4294901760
3.241816 -1.2340409 -0.30347627 4294901760
2.7393763 -1.0427805 0.56975567 4294901760
3.5388262 -1.3478091 -0.19845797 4294901760
6.726799 -2.5633349 1.6619384 4294901760
2.6981108 -1.0286899 -0.050402552 4294901760
6.642345 -2.5338085 1.9049082 4294901760
2.2389407 -0.85720783 -0.64238888 4294901760
2.8178709 -1.0794227 0.052671362 4294901760
2.4019661 -0.92058563 -0.59387076 4294901760
2.9613845 -1.1355833 0.16621901 4294901760
2.55351 -0.97917813 -0.53159386 4294901760
3.0060518 -1.1533132 0.28168735 4294901760
2.7496619 -1.0554963 -0.46648762 4294901760
2.9112504 -1.1181073 0.38291353 4294901760
2.9888809 -1.1485212 -0.39315054 4294901760
2.815486 -1.0824555 0.47775093 4294901760
3.2339864 -1.2433543 -0.30312768 4294901760
2.7412169 -1.0544509 0.57090056 4294901760
3.5452838 -1.3644578 -0.199086 4294901760
6.8069205 -2.6211135 1.6839837 4294901760
2.7019675 -1.0409775 -0.050542168 4294901760
6.7326007 -2.5951948 1.9333783 4294901760
2.2395382 -0.86641198 -0.64342415 4294901760
2.814086 -1.0892525 0.052671362 4294901760
2.3878343 -0.92474192 -0.59117132 4294901760
2.9648523 -1.1487999 0.1666377 4294901760
2.5610607 -0.99234158 -0.53388357 4294901760
3.0242996 -1.1724414 0.28377908 4294901760
2.7441196 -1.0643737 -0.46617478 4294901760
2.9110308 -1.129699 0.38340098 4294901760
2.9885547 -1.1603842 -0.39363801 4294901760
2.8393102 -1.1030065 0.48244393 4294901760
3.2389126 -1.258243 -0.30399922 4294901760
2.7448392 -1.0668581 0.57242703 4294901760
3.5274689 -1.3717576 -0.19835329 4294901760
6.8830872 -2.6780694 1.705129 4294901760
2.7094984 -1.0547553 -0.0507516 4294901760
6.7847056 -2.6425183 1.9509782 4294901760
2.2400987 -0.8756308 -0.64445943 4294901760
2.8139913 -1.1005255 0.05274117 4294901760
2.3864069 -0.93378139 -0.59162128 4294901760
2.9533846 -1.1562296 0.16621901 4294901760
2.5575809 -1.0012753 -0.53388357 4294901760
3.0405953 -1.190984 0.28569651 4294901760
2.7367086 -1.0725044 -0.46554902 4294901760
2.9144621 -1.1427521 0.38437593 4294901760
2.9752462 -1.1671845 -0.39241934 4294901760
2.842798 -1.1157978 0.48369545 4294901760
3.2363555 -1.270269 -0.30417353 4294901760
2.7593725 -1.083609 0.57624322 4294901760
3.5170827 -1.3818713 -0.19803928 4294901760
2.7058001 -1.0642067 -0.0507516 4294901760
6.8833008 -2.7086289 1.9820364 4294901760
2.2406225 -0.88486415 -0.64549476 4294901760
2.8138523 -1.111811 0.052810986 4294901760
2.3849452 -0.94282234 -0.59207118 4294901760
2.9493308 -1.1665319 0.16621901 4294901760
2.5467677 -1.0073085 -0.53235716 4294901760
3.0456824 -1.2052561 0.28656808 4294901760
2.7421317 -1.0856867 -0.46711335 4294901760
2.92522 -1.158767 0.38632584 4294901760
2.9545445 -1.1709801 -0.39022568 4294901760
2.8388858 -1.1257141 0.48369545 4294901760
2.7774715 -1.1019224 0.58082259 4294901760
2.8977814 -1.150239 -0.16339287 4294901760
2.7058442 -1.0745986 0.67215377 4294901760
2.687202 -1.0677379 -0.05047236 4294901760
7.0012627 -2.7833102 2.0187886 4294901760
2.2303426 -0.88981646 -0.64342415 4294901760
2.8136687 -1.1231093 0.052880794 4294901760
2.3834491 -0.95186436 -0.59252107 4294901760
2.9489501 -1.1783019 0.16642836 4294901760
2.5359437 -1.0132784 -0.53083062 4294901760
3.0414569 -1.2158802 0.28656808 4294901760
2.7401593 -1.0959854 -0.46742624 4294901760
2.9432735 -1.1778213 0.38925073 4294901760
2.8896246 -1.1569375 -0.3821823 4294901760
2.860611 -1.1459006 0.48807558 4294901760
2.8981943 -1.1609557 -0.27314609 4294901760
2.7827201 -1.1152627 0.58273071 4294901760
2.8863335 -1.1573739 -0.16297418 4294901760
2.7111197 -1.0876651 0.67440325 4294901760
2.6834586 -1.0771116 -0.05047236 4294901760
7.0793467 -2.8430088 2.044153 4294901760
2.2200556 -0.89470792 -0.64135361 4294901760
2.8023126 -1.1299326 0.05274117 4294901760
2.3819191 -0.9609074 -0.59297097 4294901760
2.9485235 -1.1900837 0.1666377 4294901760
2.5396736 -1.0250636 -0.53235716 4294901760
3.0334992 -1.2249974 0.28621945 4294901760
2.728991 -1.1025839 -0.46617478 4294901760
2.9465055 -1.1910638 0.39022568 4294901760
2.9186933 -1.180414 -0.38656959 4294901760
2.8657494 -1.1595837 0.48963994 4294901760
2.9015119 -1.1740545 -0.27384335 4294901760
2.7824495 -1.1264429 0.58349395 4294901760
2.8915317 -1.1711909 -0.16349754 4294901760
2.7271733 -1.1051731 0.67935222 4294901760
2.6833885 -1.0879747 -0.050542168 4294901760
7.1696286 -2.9083695 2.0731406 4294901760
2.2240763 -0.90536541 -0.64342415 4294901760
2.7983513 -1.1397077 0.05274117 4294901760
2.3695273 -0.96553922 -0.59072149 4294901760
2.94805 -1.2018768 0.16684705 4294901760
2.5360796 -1.0339224 -0.53235716 4294901760
3.0328944 -1.2370837 0.28656808 4294901760
2.7178099 -1.1091175 -0.46492329 4294901760
2.934979 -1.1983404 0.38925073 4294901760
2.9586596 -1.2086115 -0.39241934 4294901760
2.8689988 -1.1725694 0.49089143 4294901760
3.2109272 -1.3123168 -0.30347627 4294901760
2.780318 -1.1368916 0.58387554 4294901760
3.5011427 -1.4323553 -0.19824862 4294901760
2.7214954 -1.1139476 0.67890227 4294901760
2.6906779 -1.1018819 -0.0507516 4294901760
7.2649031 -2.9765916 2.1036813 4294901760
2.217329 -0.91165417 -0.64238888 4294901760
2.7980547 -1.1509902 0.052810986 4294901760
2.3625383 -0.97232109 -0.5898217 4294901760
2.9290621 -1.2060764 0.16600966 4294901760
2.5324552 -1.0427687 -0.53235716 4294901760
3.0156622 -1.2423506 0.28534791 4294901760
2.726706 -1.123867 -0.46711335 4294901760
2.9179318 -1.2032804 0.38754454 4294901760
2.9599278 -1.2212031 -0.39315054 4294901760
2.8557584 -1.1788083 0.48932707 4294901760
3.2173767 -1.3280783 -0.30452216 4294901760
2.7745178 -1.1458404 0.58349395 4294901760
3.4998136 -1.4460933 -0.19845797 4294901760
2.7049839 -1.1182293 0.675753 4294901760
2.6905107 -1.1127958 -0.050821409 4294901760
7.3580017 -3.0447755 2.1337044 4294901760
2.2248383 -0.92383361 -0.64549476 4294901760
2.7940199 -1.1607503 0.052810986 4294901760
2.3717263 -0.98579764 -0.59297097 4294901760
2.9324238 -1.2188491 0.16642836 4294901760
2.5324254 -1.05311 -0.53312039 4294901760
3.0002701 -1.2482777 0.28430203 4294901760
2.7300611 -1.1364148 -0.46836486 4294901760
2.9063838 -1.2104058 0.38656959 4294901760
2.9446526 -1.2269467 -0.39168811 4294901760
2.8372462 -1.1821936 0.48682413 4294901760
3.2127211 -1.3393008 -0.30452216 4294901760
2.7723131 -1.1562741 0.58387554 4294901760
3.5021172 -1.4613777 -0.19887665 4294901760
2.6884761 -1.1224092 0.67260367 4294901760
2.6794243 -1.1186302 -0.050681788 4294901760
7.4690809 -3.1197901 2.1689036 4294901760
2.2073472 -0.92561746 -0.64135361 4294901760
2.8049083 -1.1761956 0.053090218 4294901760
2.3684442 -0.99365717 -0.59297097 4294901760
2.9281514 -1.2290777 0.16642836 4294901760
2.5178733 -1.0573825 -0.53083062 4294901760
2.9683421 -1.2471664 0.28168735 4294901760
2.7244563 -1.1446965 -0.46805197 4294901760
2.8858838 -1.2131138 0.38437593 4294901760
2.9460573 -1.2390136 -0.39241934 4294901760
2.8130739 -1.183663 0.48338255 4294901760
3.204354 -1.3489611 -0.30417353 4294901760
2.7594163 -1.1616523 0.58196747 4294901760
3.4954112 -1.4722079 -0.19877198 4294901760
2.6721685 -1.1260211 0.66945434 4294901760
2.6644478 -1.1233152 -0.05047236 4294901760
7.5667253 -3.1916418 2.2004797 4294901760
2.2007077 -0.93142629 -0.64031839 4294901760
2.7823715 -1.1781821 0.05274117 4294901760
2.3685501 -1.0034388 -0.59387076 4294901760
2.9311988 -1.2424092 0.16684705 4294901760
2.514353 -1.0657262 -0.53083062 4294901760
2.9531841 -1.2523359 0.2806415 4294901760
2.7131703 -1.1511136 -0.46680051 4294901760
2.8743227 -1.2200776 0.38340098 4294901760
2.9526772 -1.2539455 -0.39388174 4294901760
2.8089249 -1.1934751 0.48338255 4294901760
3.1888607 -1.3549048 -0.30312768 4294901760
2.7390833 -1.1643648 0.57853287 4294901760
2.6700149 -1.1361049 0.66990423 4294901760
2.6641901 -1.1341755 -0.050542168 4294901760
7.6177449 -3.2445304 2.2185969 4294901760
2.2081015 -0.94365758 -0.64342415 4294901760
2.7855966 -1.1910319 0.052880794 4294901760
2.3524909 -1.0063355 -0.59072149 4294901760
2.9378612 -1.2573484 0.16747507 4294901760
2.5178373 -1.0775863 -0.53235716 4294901760
2.9396369 -1.2587155 0.27976993 4294901760
2.7109513 -1.161355 -0.46711335 4294901760
2.8481517 -1.2207193 0.38047612 4294901760
2.9409845 -1.2611152 -0.39290681 4294901760
2.7938495 -1.1986001 0.48150533 4294901760
3.1877737 -1.3675989 -0.30347627 4294901760
2.7169616 -1.1661755 0.57471669 4294901760
2.9913788 -1.2845794 -0.17061524 4294901760
2.674912 -1.149786 -0.050821409 4294901760
7.8104634 -3.3588698 2.2781253 4294901760
2.2047939 -0.95135951 -0.64342415 4294901760
2.7850938 -1.2023333 0.052950602 4294901760
2.354331 -1.0168591 -0.59207118 4294901760
2.927954 -1.2652191 0.16716106 4294901760
2.5176649 -1.0879261 -0.53312039 4294901760
2.9279101 -1.2658064 0.27907267 4294901760
2.6996286 -1.1676743 -0.46586189 4294901760
2.8329422 -1.2259235 0.37901369 4294901760
2.9292777 -1.2682188 -0.39193183 4294901760
2.7787731 -1.2036343 0.47962815 4294901760
3.1902936 -1.3818856 -0.30417353 4294901760
2.7038674 -1.1717492 0.57280862 4294901760
3.0015361 -1.3013693 -0.17145261 4294901760
7.6410112 -3.3144805 1.9228816 4294901760
2.6782198 -1.1623005 -0.050961025 4294901760
7.816412 -3.3938069 2.2833018 4294901760
2.2050018 -0.96059293 -0.64445943 4294901760
2.7845461 -1.2136456 0.05302041 4294901760
2.3525534 -1.0258501 -0.59252107 4294901760
2.921689 -1.2746333 0.16705638 4294901760
2.5030551 -1.0919975 -0.53083062 4294901760
2.9161696 -1.2728312 0.27837545 4294901760
2.7027776 -1.1802528 -0.46711335 4294901760
2.8250074 -1.2342155 0.37852621 4294901760
2.9357467 -1.2832063 -0.39339426 4294901760
2.7618854 -1.2077862 0.47743803 4294901760
3.1872759 -1.3938116 -0.30434784 4294901760
2.6943648 -1.1788194 0.57166374 4294901760
3.4690263 -1.5184653 -0.19845797 4294901760
7.6168995 -3.3356602 1.9197323 4294901760
2.6594932 -1.1652223 -0.050681788 4294901760
7.8045173 -3.4210708 2.2833018 4294901760
2.1892567 -0.96283984 -0.64083594 4294901760
2.7876143 -1.2265797 0.05316003 4294901760
2.3489583 -1.0340557 -0.59252107 4294901760
2.9245334 -1.2880441 0.16747507 4294901760
2.499228 -1.1007282 -0.53083062 4294901760
2.8934767 -1.2749689 0.27663234 4294901760
2.7040637 -1.1920705 -0.46805197 4294901760
2.8134167 -1.2408646 0.37755126 4294901760
2.9258008 -1.291042 -0.39266306 4294901760
2.7450027 -1.2118351 0.47524795 4294901760
2.6884377 -1.1874243 0.57128215 4294901760
3.4746659 -1.5354087 -0.199086 4294901760
7.6159039 -3.366956 1.9224317 4294901760
2.6517525 -1.1728806 -0.050611977 4294901760
7.7766294 -3.4412572 2.2786431 4294901760
2.1841168 -0.96969211 -0.64031839 4294901760
2.7796607 -1.2346792 0.053090218 4294901760
2.3506768 -1.0446229 -0.59387076 4294901760
2.9236696 -1.2998676 0.16768442 4294901760
