# .PCD v0.7 - Point Cloud Data file format
VERSION 0.7
FIELDS x y z intensity
SIZE 4 4 4 4
TYPE F F F F
COUNT 1 1 1 1
WIDTH 152
HEIGHT 1
VIEWPOINT 0 0 0 1 0 0 0
POINTS 152
DATA ascii
2.6870522 -1.4509318 0.028123461 100
2.6934505 -1.4471658 0.032139301 100
2.6998489 -1.4433998 0.036155142 100
2.7062473 -1.4396338 0.040170982 100
2.7126455 -1.4358679 0.044186823 100
2.719044 -1.4321018 0.048202664 100
2.7254424 -1.4283359 0.052218504 100
2.7318406 -1.4245698 0.056234345 100
2.738239 -1.4208039 0.060250185 100
2.7446375 -1.4170378 0.064266026 100
2.7510357 -1.4132719 0.068281867 100
2.7574341 -1.4095058 0.072297707 100
2.7638326 -1.4057399 0.07631354 100
2.7702308 -1.4019738 0.080329388 100
2.7766292 -1.3982079 0.084345229 100
2.7830276 -1.394442 0.08836107 100
2.7894258 -1.3906759 0.092376918 100
2.7958243 -1.38691 0.096392758 100
2.8022227 -1.3831439 0.1004086 100
2.8086209 -1.379378 0.10442444 100
2.8150194 -1.3756119 0.10844029 100
2.8214178 -1.371846 0.11245613 100
2.8278162 -1.3680799 0.11647197 100
2.8342144 -1.364314 0.12048782 100
2.8406129 -1.3605479 0.12450366 100
2.8470113 -1.356782 0.12851951 100
2.8534095 -1.3530159 0.13253534 100
2.859808 -1.34925 0.13655117 100
2.8662064 -1.345484 0.140567 100
2.8726046 -1.341718 0.14458285 100
2.879003 -1.337952 0.14859869 100
2.8854015 -1.334186 0.15261452 100
2.8917997 -1.33042 0.15663035 100
2.8981981 -1.326654 0.1606462 100
2.9045963 -1.322888 0.16466203 100
2.9109948 -1.3191221 0.16867787 100
2.9173932 -1.315356 0.1726937 100
2.9237914 -1.3115901 0.17670955 100
2.9301898 -1.307824 0.18072538 100
2.9365883 -1.3040581 0.18474121 100
2.9429865 -1.3002921 0.18875705 100
2.9493849 -1.2965261 0.1927729 100
2.9557834 -1.2927601 0.19678873 100
2.9621816 -1.2889941 0.20080456 100
2.96858 -1.2852281 0.20482039 100
2.9749784 -1.2814621 0.20883623 100
2.9813766 -1.2776961 0.21285208 100
2.9877751 -1.2739302 0.21686791 100
2.9941735 -1.2701641 0.22088374 100
3.0005717 -1.2663982 0.22489958 100
3.0069702 -1.2626321 0.22891542 100
3.0133686 -1.2588662 0.23293126 100
3.0448701 -1.2224848 0.28848171 100
3.0395832 -1.2209278 0.29452708 100
3.034296 -1.2193708 0.30057245 100
3.0290089 -1.2178138 0.30661783 100
3.0237219 -1.2162569 0.31266323 100
3.0184348 -1.2146999 0.3187086 100
3.0131476 -1.2131429 0.32475397 100
3.0078607 -1.2115859 0.33079934 100
3.0025735 -1.210029 0.33684471 100
2.9972866 -1.208472 0.34289011 100
2.9919994 -1.206915 0.34893548 100
2.9867122 -1.205358 0.35498086 100
2.9814253 -1.203801 0.36102623 100
2.9761381 -1.202244 0.36707163 100
2.9708509 -1.2006871 0.373117 100
2.965564 -1.1991301 0.37916237 100
2.9602768 -1.1975731 0.38520777 100
2.9549897 -1.1960161 0.39125314 100
2.9497027 -1.1944591 0.39729851 100
2.9444156 -1.1929021 0.40334392 100
2.9391286 -1.1913451 0.40938929 100
2.9338415 -1.1897881 0.41543466 100
2.9285543 -1.1882311 0.42148006 100
2.9232674 -1.1866742 0.42752543 100
2.9179802 -1.1851172 0.4335708 100
2.912693 -1.1835603 0.4396162 100
2.9074061 -1.1820033 0.44566157 100
2.9021189 -1.1804463 0.45170695 100
2.896832 -1.1788893 0.45775232 100
2.8915448 -1.1773323 0.46379769 100
2.8862576 -1.1757753 0.46984306 100
2.8809707 -1.1742183 0.47588843 100
2.8756835 -1.1726613 0.4819338 100
2.8703966 -1.1711043 0.48797917 100
2.8651094 -1.1695473 0.49402454 100
2.8598223 -1.1679903 0.50006992 100
2.8545353 -1.1664335 0.50611532 100
2.8492482 -1.1648765 0.51216066 100
2.8439612 -1.1633195 0.51820606 100
2.8386741 -1.1617625 0.5242514 100
2.8333869 -1.1602055 0.5302968 100
2.8281 -1.1586485 0.53634214 100
2.8228128 -1.1570915 0.54238755 100
2.8175259 -1.1555345 0.54843289 100
3.0544343 -1.192634 0.24909513 100
3.0522025 -1.1851231 0.24567799 100
3.0499706 -1.1776122 0.24226087 100
3.0477386 -1.1701012 0.23884375 100
3.0455067 -1.1625903 0.23542663 100
3.0432749 -1.1550792 0.2320095 100
3.041043 -1.1475683 0.22859238 100
3.0388112 -1.1400573 0.22517526 100
3.0365791 -1.1325464 0.22175813 100
3.0343473 -1.1250355 0.21834101 100
3.0321155 -1.1175245 0.21492389 100
3.0298836 -1.1100136 0.21150677 100
3.0276518 -1.1025026 0.20808965 100
3.0254197 -1.0949917 0.20467252 100
3.0231879 -1.0874807 0.2012554 100
3.020956 -1.0799698 0.19783826 100
3.0187242 -1.0724587 0.19442114 100
3.0164924 -1.0649478 0.19100402 100
3.0142603 -1.0574368 0.18758689 100
3.0120285 -1.0499259 0.18416977 100
3.0097966 -1.042415 0.18075264 100
3.0075648 -1.034904 0.17733552 100
3.0053329 -1.0273931 0.1739184 100
3.0031011 -1.0198821 0.17050126 100
3.000869 -1.0123712 0.16708414 100
2.9986372 -1.0048602 0.16366702 100
2.9964054 -0.99734926 0.16024989 100
2.9941735 -0.9898383 0.15683277 100
2.9919417 -0.98232734 0.15341565 100
2.9897096 -0.97481638 0.14999853 100
2.9874778 -0.96730548 0.14658141 100
2.9852459 -0.95979452 0.14316429 100
2.9830141 -0.95228356 0.13974717 100
2.9807823 -0.9447726 0.13633005 100
2.9785502 -0.9372617 0.13291293 100
2.9763184 -0.92975074 0.12949581 100
2.9740865 -0.92223978 0.1260787 100
2.9718547 -0.91472882 0.12266158 100
2.9696229 -0.90721792 0.11924446 100
2.967391 -0.89970696 0.11582734 100
2.9651589 -0.892196 0.11241021 100
2.9629271 -0.8846851 0.10899309 100
2.9606953 -0.87717414 0.10557597 100
2.9584634 -0.86966318 0.10215885 100
2.9562316 -0.86215222 0.098741733 100
2.9539995 -0.85464132 0.095324613 100
2.9517677 -0.84713036 0.091907494 100
2.9495358 -0.8396194 0.088490374 100
2.947304 -0.83210844 0.085073255 100
2.9450722 -0.82459754 0.081656136 100
2.9428403 -0.81708658 0.078239009 100
2.9406083 -0.80957562 0.074821889 100
2.9383764 -0.80206466 0.07140477 100
2.9361446 -0.79455376 0.067987651 100
2.9339128 -0.7870428 0.064570531 100
2.9316809 -0.77953184 0.061153412 100
