# .PCD v0.7 - Point Cloud Data file format
VERSION 0.7
FIELDS x y z intensity
SIZE 4 4 4 4
TYPE F F F F
COUNT 1 1 1 1
WIDTH 164
HEIGHT 1
VIEWPOINT 0 0 0 1 0 0 0
POINTS 164
DATA ascii
2.6872344 -1.4533117 0.029229721 100
2.6935942 -1.4494016 0.033192191 100
2.699954 -1.4454916 0.03715466 100
2.7063138 -1.4415815 0.041117132 100
2.7126737 -1.4376714 0.0450796 100
2.7190335 -1.4337614 0.049042072 100
2.7253931 -1.4298513 0.053004541 100
2.7317529 -1.4259412 0.056967009 100
2.7381127 -1.4220312 0.060929477 100
2.7444725 -1.4181212 0.064891949 100
2.7508323 -1.4142112 0.068854414 100
2.7571921 -1.4103011 0.072816886 100
2.763552 -1.406391 0.076779358 100
2.7699115 -1.402481 0.080741823 100
2.7762713 -1.3985709 0.084704295 100
2.7826312 -1.3946608 0.088666767 100
2.788991 -1.3907508 0.092629239 100
2.7953508 -1.3868407 0.096591711 100
2.8017106 -1.3829306 0.10055418 100
2.8080704 -1.3790206 0.10451666 100
2.81443 -1.3751105 0.10847913 100
2.8207898 -1.3712004 0.1124416 100
2.8271496 -1.3672904 0.11640407 100
2.8335094 -1.3633803 0.12036654 100
2.8398693 -1.3594702 0.12432902 100
2.8462291 -1.3555602 0.12829149 100
2.8525889 -1.3516501 0.13225396 100
2.8589485 -1.3477401 0.13621642 100
2.8653083 -1.3438301 0.14017889 100
2.8716681 -1.33992 0.14414135 100
2.8780279 -1.33601 0.14810382 100
2.8843877 -1.3320999 0.15206629 100
2.8907473 -1.3281898 0.15602875 100
2.8971071 -1.3242798 0.15999122 100
2.9034669 -1.3203697 0.16395368 100
2.9098268 -1.3164597 0.16791615 100
2.9161866 -1.3125496 0.17187862 100
2.9225464 -1.3086395 0.17584108 100
2.928906 -1.3047295 0.17980355 100
2.9352658 -1.3008195 0.18376601 100
2.9416256 -1.2969095 0.18772848 100
2.9479854 -1.2929994 0.19169095 100
2.9543452 -1.2890893 0.19565341 100
2.9607048 -1.2851793 0.19961588 100
2.9670646 -1.2812692 0.20357834 100
2.9734244 -1.2773591 0.20754081 100
2.9797843 -1.2734491 0.21150327 100
2.9861441 -1.269539 0.21546574 100
2.9925039 -1.2656289 0.21942821 100
2.9988635 -1.2617189 0.22339067 100
3.0052233 -1.2578089 0.22735314 100
3.0115831 -1.2538989 0.2313156 100
3.0470917 -1.2203481 0.27670789 100
3.0416129 -1.2187473 0.28316045 100
3.036134 -1.2171464 0.28961301 100
3.0306551 -1.2155455 0.29606554 100
3.025176 -1.2139448 0.3025181 100
3.0196972 -1.2123439 0.30897066 100
3.0142183 -1.2107431 0.31542322 100
3.0087395 -1.2091422 0.32187575 100
3.0032606 -1.2075413 0.32832831 100
2.9977815 -1.2059405 0.33478087 100
2.9923027 -1.2043396 0.3412334 100
2.9868238 -1.2027388 0.34768596 100
2.9813449 -1.2011379 0.35413852 100
2.9758661 -1.1995372 0.36059105 100
2.970387 -1.1979363 0.36704361 100
2.9649081 -1.1963354 0.37349617 100
2.9594293 -1.1947346 0.37994874 100
2.9539504 -1.1931337 0.3864013 100
2.9484715 -1.1915329 0.39285383 100
2.9429924 -1.189932 0.39930639 100
2.9375136 -1.1883311 0.40575895 100
2.9320347 -1.1867303 0.41221151 100
2.9265559 -1.1851295 0.41866407 100
2.921077 -1.1835287 0.42511663 100
2.9155979 -1.1819278 0.43156916 100
2.9101191 -1.1803269 0.43802172 100
2.9046402 -1.1787261 0.44447428 100
2.8991613 -1.1771252 0.45092681 100
2.8936825 -1.1755244 0.45737937 100
2.8882034 -1.1739235 0.4638319 100
2.8827245 -1.1723226 0.47028446 100
2.8772457 -1.1707219 0.47673699 100
2.8717668 -1.169121 0.48318955 100
2.8662879 -1.1675202 0.48964208 100
2.8608091 -1.1659193 0.49609464 100
2.85533 -1.1643184 0.5025472 100
2.8498511 -1.1627176 0.50899971 100
2.8443723 -1.1611167 0.51545227 100
2.8388934 -1.1595159 0.52190483 100
2.8334146 -1.1579151 0.52835739 100
2.8279357 -1.1563143 0.53480989 100
2.8224566 -1.1547134 0.54126245 100
2.8169777 -1.1531125 0.54771501 100
2.8114989 -1.1515117 0.55416757 100
2.80602 -1.1499108 0.56062007 100
2.8005412 -1.1483099 0.56707263 100
2.7950623 -1.1467091 0.57352519 100
2.7895832 -1.1451083 0.57997775 100
2.7841043 -1.1435075 0.58643025 100
2.7786255 -1.1419066 0.59288281 100
2.7731466 -1.1403058 0.59933537 100
2.7676678 -1.1387049 0.60578793 100
2.7621887 -1.137104 0.61224043 100
2.7567098 -1.1355032 0.61869299 100
2.751231 -1.1339023 0.62514555 100
2.7457521 -1.1323016 0.63159811 100
2.7402732 -1.1307007 0.63805062 100
2.7347944 -1.1290998 0.64450318 100
3.046911 -1.1790121 0.24108893 100
3.0447352 -1.1715212 0.23770124 100
3.0425596 -1.1640302 0.23431355 100
3.0403838 -1.1565393 0.23092586 100
3.0382082 -1.1490484 0.22753818 100
3.0360327 -1.1415575 0.22415049 100
3.0338569 -1.1340666 0.2207628 100
3.0316813 -1.1265757 0.21737511 100
3.0295055 -1.1190848 0.21398742 100
3.0273299 -1.1115938 0.21059974 100
3.0251544 -1.104103 0.20721206 100
3.0229785 -1.0966121 0.20382437 100
3.020803 -1.0891211 0.20043668 100
3.0186272 -1.0816302 0.19704899 100
3.0164516 -1.0741394 0.1936613 100
3.0142758 -1.0666484 0.19027361 100
3.0121002 -1.0591575 0.18688592 100
3.0099247 -1.0516666 0.18349823 100
3.0077488 -1.0441756 0.18011054 100
3.0055733 -1.0366848 0.17672285 100
3.0033975 -1.0291939 0.17333516 100
3.0012219 -1.0217029 0.16994748 100
2.9990463 -1.014212 0.16655979 100
2.9968705 -1.006721 0.1631721 100
2.9946949 -0.99923015 0.15978442 100
2.9925191 -0.99173927 0.15639673 100
2.9903436 -0.98424834 0.15300904 100
2.9881678 -0.97675747 0.14962135 100
2.9859922 -0.96926653 0.14623368 100
2.9838166 -0.96177566 0.14284599 100
2.9816408 -0.95428473 0.1394583 100
2.9794652 -0.94679385 0.13607062 100
2.9772894 -0.93930292 0.13268293 100
2.9751139 -0.93181199 0.12929526 100
2.9729383 -0.92432112 0.12590757 100
2.9707625 -0.91683018 0.12251989 100
2.9685869 -0.90933931 0.1191322 100
2.9664111 -0.90184838 0.11574452 100
2.9642355 -0.8943575 0.11235683 100
2.96206 -0.88686657 0.10896915 100
2.9598842 -0.8793757 0.10558146 100
2.9577086 -0.87188476 0.10219378 100
2.9555328 -0.86439389 0.098806098 100
2.9533572 -0.85690296 0.095418416 100
2.9511814 -0.84941208 0.092030726 100
2.9490058 -0.84192115 0.088643044 100
2.9468303 -0.83443028 0.085255362 100
2.9446545 -0.82693934 0.08186768 100
2.9424789 -0.81944847 0.07847999 100
2.9403031 -0.81195754 0.075092308 100
2.9381275 -0.80446666 0.071704626 100
2.9359519 -0.79697573 0.068316944 100
2.9337761 -0.78948486 0.064929254 100
2.9316006 -0.78199393 0.061541572 100
