# .PCD v0.7 - Point Cloud Data file format
VERSION 0.7
FIELDS x y z intensity
SIZE 4 4 4 4
TYPE F F F F
COUNT 1 1 1 1
WIDTH 120
HEIGHT 1
VIEWPOINT 0 0 0 1 0 0 0
POINTS 120
DATA ascii
2.7071629 -1.4393016 0.041599646 100
2.7147405 -1.4347597 0.046284936 100
2.7223179 -1.430218 0.050970227 100
2.7298956 -1.4256761 0.055655517 100
2.7374732 -1.4211342 0.060340807 100
2.7450509 -1.4165925 0.065026097 100
2.7526283 -1.4120506 0.069711387 100
2.760206 -1.4075087 0.074396677 100
2.7677836 -1.402967 0.079081967 100
2.7753611 -1.3984251 0.08376725 100
2.7829387 -1.3938832 0.08845254 100
2.7905164 -1.3893415 0.09313783 100
2.7980938 -1.3847996 0.097823121 100
2.8056715 -1.3802577 0.10250841 100
2.8132491 -1.375716 0.1071937 100
2.8208268 -1.3711741 0.111879 100
2.8284042 -1.3666322 0.11656429 100
2.8359818 -1.3620905 0.12124958 100
2.8435595 -1.3575486 0.12593487 100
2.8511369 -1.3530067 0.13062017 100
2.8587146 -1.348465 0.13530546 100
2.8662922 -1.3439231 0.13999075 100
2.8738699 -1.3393812 0.14467604 100
2.8814473 -1.3348395 0.14936134 100
2.889025 -1.3302976 0.15404662 100
2.8966026 -1.3257557 0.15873192 100
2.90418 -1.321214 0.16341721 100
2.9117577 -1.3166721 0.16810249 100
2.9193354 -1.3121302 0.17278777 100
2.9269128 -1.3075885 0.17747307 100
3.0215604 -1.2155967 0.30657876 100
3.0161569 -1.213982 0.31295273 100
3.0107536 -1.2123673 0.31932667 100
3.0053504 -1.2107527 0.32570064 100
2.9999471 -1.209138 0.33207458 100
2.9945436 -1.2075233 0.33844855 100
2.9891403 -1.2059087 0.3448225 100
2.983737 -1.204294 0.35119644 100
2.9783337 -1.2026793 0.35757041 100
2.9729304 -1.2010647 0.36394435 100
2.9675269 -1.19945 0.37031832 100
2.9621236 -1.1978353 0.37669227 100
2.9567204 -1.1962206 0.38306621 100
2.9513171 -1.1946059 0.38944018 100
2.9459136 -1.1929913 0.39581415 100
2.9405103 -1.1913766 0.40218809 100
2.935107 -1.189762 0.40856206 100
2.9297037 -1.1881473 0.41493601 100
2.9243004 -1.1865326 0.42130998 100
2.9188969 -1.1849179 0.42768392 100
2.9134936 -1.1833032 0.43405789 100
2.9080904 -1.1816885 0.44043186 100
2.9026871 -1.180074 0.4468058 100
2.8972836 -1.1784593 0.45317978 100
2.8918803 -1.1768446 0.45955372 100
2.886477 -1.1752299 0.46592769 100
2.8810737 -1.1736152 0.47230163 100
2.8756704 -1.1720005 0.47867557 100
2.8702669 -1.170386 0.48504952 100
2.8648636 -1.1687713 0.49142349 100
2.8594604 -1.1671566 0.49779743 100
2.8540571 -1.1655419 0.50417137 100
2.8486538 -1.1639272 0.51054531 100
2.8432503 -1.1623125 0.51691926 100
2.837847 -1.1606979 0.5232932 100
2.8324437 -1.1590832 0.5296672 100
2.8270404 -1.1574686 0.53604114 100
2.8216372 -1.1558539 0.54241508 100
2.8162336 -1.1542392 0.54878902 100
2.8108304 -1.1526246 0.55516297 100
2.8054271 -1.1510099 0.56153691 100
2.8000238 -1.1493952 0.56791085 100
2.7946205 -1.1477805 0.57428479 100
2.789217 -1.1461658 0.58065879 100
2.7838137 -1.1445512 0.58703274 100
2.7784104 -1.1429366 0.59340668 100
2.7730072 -1.1413219 0.59978062 100
2.7676039 -1.1397072 0.60615456 100
2.7622004 -1.1380925 0.6125285 100
2.7567971 -1.1364778 0.61890244 100
2.7513938 -1.1348631 0.62527639 100
2.7459905 -1.1332486 0.63165039 100
2.7405872 -1.1316339 0.63802433 100
2.7351837 -1.1300192 0.64439827 100
3.0107543 -1.0555301 0.18326306 100
3.0081844 -1.0467113 0.17931022 100
3.0056145 -1.0378926 0.17535737 100
3.0030446 -1.0290738 0.17140453 100
3.0004747 -1.0202551 0.16745168 100
2.9979048 -1.0114362 0.16349883 100
2.9953349 -1.0026175 0.15954599 100
2.9927649 -0.99379873 0.15559314 100
2.990195 -0.98497999 0.1516403 100
2.9876251 -0.97616124 0.14768745 100
2.9850552 -0.9673425 0.1437346 100
2.9824853 -0.95852369 0.13978176 100
2.9799154 -0.94970495 0.13582891 100
2.9773455 -0.9408862 0.13187607 100
2.9747756 -0.93206745 0.12792322 100
2.9722056 -0.92324865 0.12397037 100
2.9696357 -0.9144299 0.12001752 100
2.9670658 -0.90561116 0.11606467 100
2.9644959 -0.89679235 0.11211182 100
2.961926 -0.88797361 0.10815898 100
2.9593561 -0.87915486 0.10420612 100
2.9567859 -0.87033606 0.10025328 100
2.954216 -0.86151731 0.096300423 100
2.9516461 -0.85269856 0.092347577 100
2.9490762 -0.84387976 0.088394731 100
2.9465063 -0.83506101 0.084441878 100
2.9439363 -0.82624227 0.080489039 100
2.9413664 -0.81742352 0.076536193 100
2.9387965 -0.80860478 0.072583355 100
2.9362266 -0.79978603 0.068630509 100
2.9336567 -0.79096729 0.064677671 100
2.9310868 -0.78214854 0.060724825 100
2.9285169 -0.77332973 0.056771982 100
2.925947 -0.76451099 0.05281914 100
2.923377 -0.75569224 0.048866298 100
2.9208071 -0.7468735 0.044913456 100
