# .PCD v0.7 - Point Cloud Data file format
VERSION 0.7
FIELDS x y z intensity
SIZE 4 4 4 4
TYPE F F F F
COUNT 1 1 1 1
WIDTH 418
HEIGHT 1
VIEWPOINT 0 0 0 1 0 0 0
POINTS 418
DATA ascii
2.8106935 -0.87435728 -0.051379886 0
2.7847357 -0.87695521 -0.050961025 0
2.7587948 -0.87938273 -0.050542168 0
2.749999 -0.88716549 -0.050437454 0
2.7411826 -0.89489758 -0.05033274 0
2.7494347 -0.90822399 -0.050542168 0
2.750041 -0.91908348 -0.050611977 0
2.7354498 -0.92483461 -0.050402552 0
2.7359893 -0.93567151 -0.05047236 0
2.7327063 -0.9452163 -0.05047236 0
2.7369404 -0.95739049 -0.050611977 0
2.733582 -0.96693838 -0.050611977 0
2.7226586 -0.97378075 -0.05047236 0
2.7154815 -0.98191863 -0.050402552 0
2.7195501 -0.9941377 -0.050542168 0
2.7160633 -1.0036247 -0.050542168 0
2.7162902 -1.0144987 -0.050611977 0
2.7091691 -1.0220889 -0.050542168 0
2.6981108 -1.0286899 -0.050402552 0
2.7019675 -1.0409775 -0.050542168 0
2.7094984 -1.0547553 -0.0507516 0
2.7058001 -1.0642067 -0.0507516 0
2.687202 -1.0677379 -0.05047236 0
2.6834586 -1.0771116 -0.05047236 0
2.6833885 -1.0879747 -0.050542168 0
2.6906779 -1.1018819 -0.0507516 0
2.6905107 -1.1127958 -0.050821409 0
2.6794243 -1.1186302 -0.050681788 0
2.6644478 -1.1233152 -0.05047236 0
2.6641901 -1.1341755 -0.050542168 0
2.674912 -1.149786 -0.050821409 0
2.6782198 -1.1623005 -0.050961025 0
2.6594932 -1.1652223 -0.050681788 0
2.6517525 -1.1728806 -0.050611977 0
2.6659017 -1.1902825 -0.050961025 0
2.6619399 -1.1991163 -0.050961025 0
2.657738 -1.208401 -0.050961025 0
2.6500807 -1.2155403 -0.050891217 0
2.6458216 -1.2247834 -0.050891217 0
2.6526172 -1.238627 -0.051100649 0
2.6482775 -1.2478788 -0.051100649 0
2.6472974 -1.2592947 -0.051170457 0
2.6392801 -1.2667974 -0.051100649 0
2.6312423 -1.2742592 -0.051030833 0
2.6303718 -1.2851919 -0.051100649 0
2.6364043 -1.3001307 -0.051310074 0
2.6354311 -1.311107 -0.051379886 0
2.623919 -1.3162526 -0.051240265 0
2.6264455 -1.3290154 -0.051379886 0
2.618228 -1.336357 -0.051310074 0
2.6206591 -1.3491495 -0.051449694 0
2.6298931 -1.3661201 -0.051728934 0
2.6268795 -1.3762196 -0.051763836 0
2.6223013 -1.3849231 -0.051763836 0
2.6865597 -1.4429363 -0.053229842 0
2.9365599 -0.7528879 0.052915696 0
2.933166 -0.77388066 0.052950602 0
2.9207878 -0.78153014 0.05277608 0
2.9238322 -0.79329169 0.052880794 0
2.9228325 -0.80453336 0.052915696 0
2.9315634 -0.81795567 0.053125124 0
2.9307592 -0.82821637 0.05316003 0
2.9124708 -0.83403748 0.052880794 0
2.9133825 -0.84531325 0.052950602 0
2.9065773 -0.85434985 0.052880794 0
2.9074104 -0.86563176 0.052950602 0
2.9045238 -0.87526834 0.052950602 0
2.8976259 -0.88423431 0.052880794 0
2.8907003 -0.89316291 0.052810986 0
2.8837481 -0.90205383 0.05274117 0
2.8882074 -0.91452914 0.052880794 0
2.8886445 -0.92633003 0.052950602 0
2.8665352 -0.92973465 0.052601553 0
2.8670721 -0.94098228 0.052671362 0
2.8599746 -0.94972396 0.052601553 0
2.8680155 -0.96352243 0.052810986 0
2.8627412 -0.97288424 0.05277608 0
2.8574369 -0.98222113 0.05274117 0
2.8407693 -0.987593 0.052496839 0
2.8467369 -1.0008192 0.052671362 0
2.8526471 -1.0140992 0.052845888 0
2.8453259 -1.0226978 0.05277608 0
2.8342211 -1.0298918 0.052636456 0
2.8268547 -1.0383998 0.052566648 0
2.8307114 -1.0510453 0.052706268 0
2.8307698 -1.0623251 0.05277608 0
2.8291013 -1.0724154 0.052810986 0
2.8178709 -1.0794227 0.052671362 0
2.814086 -1.0892525 0.052671362 0
2.8139913 -1.1005255 0.05274117 0
2.8138523 -1.111811 0.052810986 0
2.8136687 -1.1231093 0.052880794 0
2.8023126 -1.1299326 0.05274117 0
2.7983513 -1.1397077 0.05274117 0
2.7980547 -1.1509902 0.052810986 0
2.7940199 -1.1607503 0.052810986 0
2.8049083 -1.1761956 0.053090218 0
2.7823715 -1.1781821 0.05274117 0
2.7855966 -1.1910319 0.052880794 0
2.7850938 -1.2023333 0.052950602 0
2.7845461 -1.2136456 0.05302041 0
2.7876143 -1.2265797 0.05316003 0
2.7796607 -1.2346792 0.053090218 0
2.7680352 -1.2411021 0.052950602 0
2.7784801 -1.2568679 0.053229842 0
2.774076 -1.2665588 0.053229842 0
2.7771256 -1.2790972 0.053369459 0
2.7617638 -1.2837261 0.05316003 0
2.7611127 -1.2945751 0.053229842 0
2.7651579 -1.3094467 0.053404365 0
2.7698226 -1.3229182 0.053578887 0
2.7687907 -1.3343149 0.053648699 0
2.756923 -1.3404741 0.053509079 0
2.7537861 -1.3514507 0.053543981 0
2.7562203 -1.364604 0.053683605 0
2.7514403 -1.3742167 0.053683605 0
2.7540121 -1.3869309 0.053823221 0
2.7455883 -1.3947246 0.053753413 0
2.7371438 -1.4024762 0.053683605 0
2.7319849 -1.412499 0.053683605 0
2.7199454 -1.4183282 0.053543981 0
2.7185175 -1.4296756 0.053613789 0
2.6943274 -1.4283797 0.053229842 0
2.6752169 -1.4302334 0.052950602 0
2.668448 -1.4386139 0.052915696 0
2.6596439 -1.4464738 0.052845888 0
2.6440585 -1.4499797 0.052636456 0
2.6249812 -1.4514594 0.052357223 0
2.6024327 -1.450876 0.052008174 0
2.6008387 -1.4619111 0.052077983 0
2.8546956 -0.74359244 0.15460044 0
2.8667972 -0.76815605 0.15554248 0
2.8737354 -0.78077668 0.15606584 0
2.8708546 -0.79130411 0.15606584 0
2.8680749 -0.80132049 0.15606584 0
2.8807762 -0.8151775 0.15690321 0
2.8971121 -0.83073354 0.15794992 0
2.9057026 -0.84418452 0.15857796 0
2.9104018 -0.85657781 0.15899664 0
2.9152019 -0.86850548 0.15941535 0
2.923625 -0.8821376 0.16004337 0
2.9358087 -0.89700657 0.16088074 0
2.944108 -0.91079062 0.16150878 0
2.9485347 -0.92344958 0.16192746 0
2.949101 -0.93494338 0.16213681 0
2.9610333 -0.95011377 0.16297418 0
2.9728959 -0.96537882 0.16381156 0
2.9827902 -0.98011476 0.16454425 0
2.986932 -0.99304104 0.16496295 0
2.9834473 -1.0034614 0.16496295 0
2.9950531 -1.0190159 0.16580033 0
3.0028088 -1.0333638 0.16642836 0
2.9991834 -1.0438392 0.16642836 0
2.9955215 -1.054302 0.16642836 0
2.9899414 -1.0640824 0.16632369 0
2.9862089 -1.0745126 0.16632369 0
2.9899476 -1.0876609 0.16674237 0
2.9842584 -1.097402 0.1666377 0
2.9691768 -1.1036371 0.16600966 0
2.9617612 -1.1120731 0.16580033 0
2.9690652 -1.1266562 0.16642836 0
2.9613845 -1.1355833 0.16621901 0
2.9648523 -1.1487999 0.1666377 0
2.9533846 -1.1562296 0.16621901 0
2.9493308 -1.1665319 0.16621901 0
2.9489501 -1.1783019 0.16642836 0
2.9485235 -1.1900837 0.1666377 0
2.94805 -1.2018768 0.16684705 0
2.9290621 -1.2060764 0.16600966 0
2.9324238 -1.2188491 0.16642836 0
2.9281514 -1.2290777 0.16642836 0
2.9311988 -1.2424092 0.16684705 0
2.9378612 -1.2573484 0.16747507 0
2.927954 -1.2652191 0.16716106 0
2.921689 -1.2746333 0.16705638 0
2.9245334 -1.2880441 0.16747507 0
2.9236696 -1.2998676 0.16768442 0
2.9156983 -1.3079208 0.16747507 0
2.9074759 -1.316443 0.16726573 0
2.8921945 -1.3210982 0.1666377 0
2.8803101 -1.3278412 0.16621901 0
2.875891 -1.3373852 0.16621901 0
2.8549325 -1.3397794 0.16527697 0
2.8355632 -1.3433933 0.16443959 0
2.8092332 -1.3429459 0.16318353 0
2.8045282 -1.3527437 0.16318353 0
2.7926056 -1.3590294 0.16276483 0
2.7768497 -1.3639723 0.16213681 0
2.7541759 -1.364789 0.16109009 0
2.735342 -1.3667728 0.16025271 0
2.7269874 -1.3745148 0.16004337 0
2.7114906 -1.3785943 0.15941535 0
2.7066619 -1.3880508 0.15941535 0
2.6767225 -1.3851112 0.15794992 0
2.6683302 -1.3925982 0.15774059 0
2.6530921 -1.3958592 0.15711255 0
2.644675 -1.4032394 0.15690321 0
2.6291943 -1.406809 0.15627518 0
2.6102059 -1.4083905 0.1554378 0
2.5980096 -1.4141288 0.15501912 0
2.5895557 -1.421267 0.15480977 0
2.5775888 -1.4264292 0.15439108 0
2.5656173 -1.4315253 0.1539724 0
2.5588639 -1.4394929 0.15386772 0
2.8134878 -0.75439817 0.25484338 0
2.7926526 -0.77027363 0.2534489 0
2.8032415 -0.78426147 0.25466907 0
2.8007638 -0.79306424 0.25466907 0
2.8132994 -0.80723208 0.25606358 0
2.8257699 -0.82149684 0.25745806 0
2.8305302 -0.83360714 0.25815532 0
2.8390584 -0.84689957 0.25920117 0
2.843714 -0.85910934 0.25989842 0
2.84466 -0.86969978 0.26024702 0
2.8568332 -0.88433754 0.26164153 0
2.8689384 -0.89907074 0.26303601 0
2.8732204 -0.91199106 0.2637333 0
2.8776069 -0.92445254 0.26443052 0
2.8743625 -0.93449163 0.26443052 0
2.8939602 -0.95148563 0.26652226 0
2.9057455 -0.96661288 0.26791674 0
2.9136837 -0.98056298 0.26896262 0
2.9140153 -0.99201173 0.26931125 0
2.921838 -1.0060695 0.2703571 0
2.9295976 -1.0201938 0.27140298 0
2.9448113 -1.0370318 0.27314609 0
2.9561889 -1.0526515 0.27454057 0
2.9562459 -1.0643139 0.2748892 0
2.9637461 -1.0787152 0.27593508 0
2.9786611 -1.0959338 0.27767819 0
2.9934916 -1.1132696 0.2794213 0
2.9970474 -1.1265161 0.28011855 0
2.9930968 -1.1369708 0.28011855 0
3.0060518 -1.1533132 0.28168735 0
3.0242996 -1.1724414 0.28377908 0
3.0405953 -1.190984 0.28569651 0
3.0456824 -1.2052561 0.28656808 0
3.0414569 -1.2158802 0.28656808 0
3.0334992 -1.2249974 0.28621945 0
3.0328944 -1.2370837 0.28656808 0
3.0156622 -1.2423506 0.28534791 0
3.0002701 -1.2482777 0.28430203 0
2.9683421 -1.2471664 0.28168735 0
2.9531841 -1.2523359 0.2806415 0
2.9396369 -1.2587155 0.27976993 0
2.9279101 -1.2658064 0.27907267 0
2.9161696 -1.2728312 0.27837545 0
2.8934767 -1.2749689 0.27663234 0
2.8671632 -1.2753443 0.27454057 0
2.862694 -1.2853447 0.27454057 0
2.8509312 -1.29204 0.27384335 0
2.8393829 -1.2981731 0.27314609 0
2.8131251 -1.2980592 0.27105436 0
2.7943547 -1.3006546 0.26965985 0
2.7789774 -1.3053186 0.26861399 0
2.7669733 -1.3120805 0.26791674 0
2.7587821 -1.3200113 0.26756814 0
2.73824 -1.3213594 0.26599932 0
2.7280052 -1.3287693 0.26547641 0
2.7108331 -1.3321327 0.26425621 0
2.7061667 -1.3415872 0.26425621 0
2.6925571 -1.3465693 0.26338464 0
2.6664941 -1.3451911 0.2612929 0
2.6442604 -1.3449934 0.2595498 0
2.6357677 -1.3528564 0.25920117 0
2.6274903 -1.3602167 0.25885254 0
2.6156621 -1.3656917 0.25815532 0
2.5932496 -1.3655306 0.25641218 0
2.5779095 -1.3689677 0.25536633 0
2.5698426 -1.3756284 0.2550177 0
2.5560176 -1.3803045 0.25414613 0
2.5494339 -1.3882654 0.25397182 0
2.5253618 -1.386608 0.25205442 0
2.5309649 -1.4012047 0.25310028 0
2.7473853 -0.78935701 0.35098374 0
2.7236474 -0.79283941 0.3483026 0
2.7379994 -0.8073951 0.35049626 0
2.740871 -0.81865197 0.35122749 0
2.7533424 -0.83233196 0.3531774 0
2.7618089 -0.845424 0.3546398 0
2.7550492 -0.8538841 0.35415235 0
2.7596276 -0.86587286 0.35512727 0
2.7755082 -0.88150942 0.35756469 0
2.7873764 -0.89653885 0.35951459 0
2.79949 -0.91068995 0.3614645 0
2.796294 -0.92045635 0.3614645 0
2.8043644 -0.93397528 0.36292693 0
2.8161366 -0.94882905 0.36487687 0
2.820323 -0.96121496 0.36585179 0
2.8282111 -0.97493565 0.36731425 0
2.8322885 -0.98741573 0.36828917 0
2.8363132 -0.99993652 0.36926416 0
2.8440244 -1.0138302 0.37072656 0
2.8628781 -1.0318285 0.37365144 0
2.8741801 -1.0472523 0.37560135 0
2.870507 -1.0572786 0.37560135 0
2.8705196 -1.0686773 0.37608883 0
2.8853512 -1.0856818 0.37852621 0
2.9040017 -1.1037068 0.38145107 0
2.9112504 -1.1181073 0.38291353 0
2.9110308 -1.129699 0.38340098 0
2.9144621 -1.1427521 0.38437593 0
2.92522 -1.158767 0.38632584 0
2.9432735 -1.1778213 0.38925073 0
2.9465055 -1.1910638 0.39022568 0
2.934979 -1.1983404 0.38925073 0
2.9179318 -1.2032804 0.38754454 0
2.9063838 -1.2104058 0.38656959 0
2.8858838 -1.2131138 0.38437593 0
2.8743227 -1.2200776 0.38340098 0
2.8481517 -1.2207193 0.38047612 0
2.8329422 -1.2259235 0.37901369 0
2.8250074 -1.2342155 0.37852621 0
2.8134167 -1.2408646 0.37755126 0
2.8018143 -1.2474482 0.3765763 0
2.7757151 -1.2474558 0.37365144 0
2.7607157 -1.2517353 0.37218902 0
2.7491093 -1.2580602 0.37121406 0
2.7377131 -1.2638414 0.37023908 0
2.7278864 -1.2708752 0.36950788 0
2.7074876 -1.2723159 0.36731425 0
2.6846488 -1.2741908 0.36487687 0
2.6804087 -1.2830864 0.36487687 0
2.6651883 -1.2872548 0.36341441 0
2.65711 -1.2948111 0.36292693 0
2.630971 -1.2940277 0.36000207 0
2.6122119 -1.2961451 0.35805216 0
2.6041214 -1.3034785 0.35756469 0
2.5997846 -1.3121068 0.35756469 0
2.5845745 -1.3157701 0.35610226 0
2.5605409 -1.3148096 0.35342112 0
2.5451295 -1.3187062 0.35195872 0
2.5317137 -1.3229854 0.35073999 0
2.5358613 -1.3364424 0.35195872 0
2.5173912 -1.3373936 0.35000879 0
2.5127075 -1.3461728 0.35000879 0
2.7242887 -0.84539282 0.45178279 0
2.6987064 -0.8477928 0.44802836 0
2.7126729 -0.86259532 0.4508442 0
2.7002432 -0.86903322 0.44927984 0
2.717854 -0.88518256 0.45272139 0
2.7241285 -0.89775574 0.45428574 0
2.737844 -0.91288286 0.45710155 0
2.7327688 -0.92180264 0.45678869 0
2.7370129 -0.93388784 0.45804018 0
2.7524092 -0.94988036 0.46116886 0
2.7677271 -0.96599162 0.46429756 0
2.7792404 -0.98090643 0.46680051 0
2.7702181 -0.98861003 0.46586189 0
2.7760408 -1.001626 0.46742624 0
2.7873738 -1.0167254 0.46992919 0
2.8004885 -1.0325996 0.472745 0
2.8079731 -1.0465078 0.47462222 0
2.8007898 -1.0544217 0.47399649 0
2.8100162 -1.069109 0.47618657 0
2.815486 -1.0824555 0.47775093 0
2.8393102 -1.1030065 0.48244393 0
2.842798 -1.1157978 0.48369545 0
2.8388858 -1.1257141 0.48369545 0
2.860611 -1.1459006 0.48807558 0
2.8657494 -1.1595837 0.48963994 0
2.8689988 -1.1725694 0.49089143 0
2.8557584 -1.1788083 0.48932707 0
2.8372462 -1.1821936 0.48682413 0
2.8130739 -1.183663 0.48338255 0
2.8089249 -1.1934751 0.48338255 0
2.7938495 -1.1986001 0.48150533 0
2.7787731 -1.2036343 0.47962815 0
2.7618854 -1.2077862 0.47743803 0
2.7450027 -1.2118351 0.47524795 0
2.7335389 -1.2181933 0.47399649 0
2.7240791 -1.2248211 0.4730579 0
2.7143905 -1.2318734 0.47211927 0
2.6959219 -1.2342894 0.46961632 0
2.6754584 -1.2362353 0.46680051 0
2.6659727 -1.242597 0.46586189 0
2.6526816 -1.2476916 0.46429756 0
2.6391685 -1.2531694 0.46273321 0
2.6151819 -1.2529851 0.45929164 0
2.6036785 -1.2586673 0.45804018 0
2.5957179 -1.2660162 0.45741442 0
2.5839713 -1.2720317 0.45616296 0
2.5688999 -1.275772 0.45428574 0
2.5505252 -1.2772077 0.45178279 0
2.5266559 -1.2763057 0.44834125 0
2.5274658 -1.2878082 0.44927984 0
2.6764352 -0.93465298 0.55105644 0
2.6990733 -0.95314193 0.55639905 0
2.6975787 -0.96321797 0.5567807 0
2.7052796 -0.9766283 0.55907035 0
2.7036984 -0.98673856 0.559452 0
2.7020795 -0.99684972 0.55983365 0
2.7169788 -1.0131352 0.56364983 0
2.731797 -1.0295365 0.56746602 0
2.7393763 -1.0427805 0.56975567 0
2.7412169 -1.0544509 0.57090056 0
2.7448392 -1.0668581 0.57242703 0
2.7593725 -1.083609 0.57624322 0
2.7774715 -1.1019224 0.58082259 0
2.7827201 -1.1152627 0.58273071 0
2.7824495 -1.1264429 0.58349395 0
2.780318 -1.1368916 0.58387554 0
2.7745178 -1.1458404 0.58349395 0
2.7723131 -1.1562741 0.58387554 0
2.7594163 -1.1616523 0.58196747 0
2.7390833 -1.1643648 0.57853287 0
2.7169616 -1.1661755 0.57471669 0
2.7038674 -1.1717492 0.57280862 0
2.6943648 -1.1788194 0.57166374 0
2.6884377 -1.1874243 0.57128215 0
2.6699319 -1.1904056 0.5682292 0
2.6460667 -1.1908551 0.56403142 0
2.6313775 -1.1947535 0.56174171 0
2.6307604 -1.2055671 0.56250495 0
2.6160557 -1.2093415 0.56021523 0
2.5975852 -1.2118258 0.55716228 0
2.5811176 -1.2145816 0.55449098 0
2.5622492 -1.2177417 0.55143803 0
