# .PCD v0.7 - Point Cloud Data file format
VERSION 0.7
FIELDS x y z intensity
SIZE 4 4 4 4
TYPE F F F F
COUNT 1 1 1 1
WIDTH 428
HEIGHT 1
VIEWPOINT 0 0 0 1 0 0 0
POINTS 428
DATA ascii
2.9408286 -0.75234145 0.052985508 0
2.8610129 -0.74310553 0.15491444 0
2.9221022 -0.76877993 0.05274117 0
2.9369264 -0.78310257 0.053055316 0
2.8558886 -0.76256251 0.15491444 0
2.8353188 -0.75760013 0.25676081 0
2.9110105 -0.78708631 0.052636456 0
2.8667045 -0.77618068 0.15564716 0
2.9236734 -0.80147213 0.052915696 0
2.8755336 -0.7893548 0.15627518 0
2.7838514 -0.76470989 0.25257733 0
2.9227848 -0.81220818 0.052950602 0
2.8766093 -0.80045831 0.15648453 0
2.8003588 -0.77976722 0.25432047 0
2.9237814 -0.8234899 0.05302041 0
2.8814864 -0.81266326 0.15690321 0
2.8129599 -0.79386675 0.25571495 0
2.9189665 -0.83314204 0.052985508 0
2.8901546 -0.82600963 0.15753125 0
2.8140028 -0.80477667 0.25606358 0
2.7537982 -0.78859878 0.35171497 0
2.9121981 -0.84221488 0.052915696 0
2.9064379 -0.84164852 0.15857796 0
2.8150036 -0.81570351 0.25641218 0
2.9092405 -0.85237527 0.052915696 0
2.9149811 -0.85516226 0.15920599 0
2.8274331 -0.83001429 0.25780669 0
2.7367985 -0.80444562 0.35025251 0
2.9024136 -0.86138725 0.052845888 0
2.9081495 -0.86419421 0.15899664 0
2.8397963 -0.8444218 0.25920117 0
2.733974 -0.81399399 0.35025251 0
2.903219 -0.87266469 0.052915696 0
2.912765 -0.87664294 0.15941535 0
2.8444626 -0.85662752 0.25989842 0
2.7463205 -0.82811707 0.35220242 0
2.9039814 -0.88395816 0.052985508 0
2.9287925 -0.89262766 0.16046207 0
2.8452666 -0.86771357 0.26024702 0
2.7548046 -0.84117681 0.35366488 0
2.8855903 -0.88937753 0.052706268 0
2.9409263 -0.90755713 0.16129944 0
2.8498352 -0.87999153 0.26094431 0
2.7670236 -0.85547853 0.35561478 0
2.7380872 -0.8475796 0.45397288 0
2.8113031 -0.87239492 -0.051379886 0
2.8861287 -0.9011398 0.05277608 0
2.9452052 -0.92071372 0.16171812 0
2.8694088 -0.89756852 0.26303601 0
2.7676582 -0.86680096 0.35610226 0
2.7756562 -0.87249875 -0.050786503 0
2.8753386 -0.90879822 0.052636456 0
2.9457817 -0.93219399 0.16192746 0
2.8776553 -0.91118783 0.2640819 0
2.7721846 -0.87885624 0.35707721 0
2.7150068 -0.86177242 0.45115703 0
2.7840273 -0.88582021 -0.050995931 0
2.8835766 -0.92248523 0.052845888 0
2.9578917 -0.94682866 0.16276483 0
2.8820462 -0.9236595 0.26477915 0
2.7842214 -0.89337969 0.35902712 0
2.7083726 -0.86956328 0.4505313 0
2.7563283 -0.88708335 -0.050542168 0
2.8766963 -0.93081123 0.05277608 0
2.969769 -0.96207196 0.16360222 0
2.8788044 -0.93371409 0.26477915 0
2.7925725 -0.90628427 0.36048955 0
2.7147143 -0.88206416 0.45209566 0
2.7303984 -0.88926816 -0.050123312 0
2.8696289 -0.93960261 0.052706268 0
2.9815757 -0.9774099 0.16443959 0
2.8870513 -0.94698113 0.265825 0
2.8044801 -0.92098147 0.36243945 0
2.7116187 -0.89153481 0.45209566 0
2.7500682 -0.90630436 -0.050542168 0
2.8701279 -0.95087147 0.05277608 0
2.9914157 -0.99221301 0.16517229 0
2.8988559 -0.96207374 0.26721951 0
2.8050158 -0.93201715 0.36292693 0
2.7328572 -0.90910053 0.45616296 0
2.7544758 -0.91842848 -0.050681788 0
2.8648953 -0.96024883 0.05274117 0
2.9879341 -1.0026489 0.16517229 0
2.9068124 -0.97599185 0.26826537 0
2.8092716 -0.94433278 0.36390188 0
2.7465172 -0.9243052 0.4589788 0
2.755043 -0.9293161 -0.0507516 0
2.8653138 -0.97152758 0.052810986 0
2.9919808 -1.0156406 0.16559097 0
2.9184802 -0.99125874 0.26965985 0
2.8209934 -0.9592458 0.36585179 0
2.7451439 -0.93452317 0.45929164 0
2.7366419 -0.9337613 -0.05047236 0
2.8581219 -0.9802261 0.05274117 0
2.9959736 -1.0286729 0.16600966 0
2.9187708 -1.0027345 0.27000847 0
2.8326452 -0.9742521 0.3678017 0
2.7437327 -0.94474292 0.45960453 0
2.6988888 -0.92982882 0.55487263 0
2.7295849 -0.94200355 -0.050402552 0
2.8471258 -0.98757553 0.052601553 0
2.9961381 -1.0404348 0.16621901 0
2.9188402 -1.0147344 0.2703571 0
2.8404768 -0.98804706 0.36926416 0
2.7590735 -0.96081096 0.46273321 0
2.6954627 -0.93971437 0.55487263 0
2.7338321 -0.95416158 -0.050542168 0
2.8397131 -0.9966796 0.052531745 0
2.9998419 -1.0540576 0.1666377 0
2.9378355 -1.0328463 0.27244884 0
2.8330915 -0.99713314 0.36877668 0
2.7741642 -0.97748166 0.46586189 0
2.6940174 -0.94977039 0.55525422 0
2.7303166 -0.96417511 -0.050542168 0
2.8437548 -1.0092613 0.052671362 0
2.9904983 -1.0625166 0.16632369 0
2.952985 -1.0497688 0.27419198 0
2.8408144 -1.0110099 0.37023908 0
2.7819002 -0.99113715 0.46773914 0
2.6777408 -0.95455384 0.55258286 0
2.7269344 -0.97369993 -0.050542168 0
2.8477435 -1.0218832 0.052810986 0
2.9869583 -1.0724276 0.16632369 0
2.9605527 -1.0641137 0.27523783 0
2.852211 -1.0262967 0.37218902 0
2.7785983 -1.0003569 0.46773914 0
2.6965559 -0.97188324 0.55716228 0
2.7236903 -0.98273748 -0.050542168 0
2.8443391 -1.0313212 0.052810986 0
2.9833858 -1.0823268 0.16632369 0
2.9644983 -1.0766459 0.27593508 0
2.8711791 -1.0438888 0.37511387 0
2.7901163 -1.0149678 0.47024205 0
2.7099209 -0.98686624 0.56059688 0
2.7166591 -0.99039423 -0.05047236 0
2.8258822 -1.0352446 0.052531745 0
2.9795895 -1.0927341 0.16632369 0
2.9721346 -1.0905887 0.27698094 0
2.8751552 -1.0561423 0.37608883 0
2.7958264 -1.0281098 0.47180638 0
2.7066333 -0.99584717 0.56059688 0
2.7169383 -1.001254 -0.050542168 0
2.8222513 -1.0451025 0.052531745 0
2.9813752 -1.105211 0.1666377 0
2.9755888 -1.1042475 0.27767819 0
2.8751729 -1.0675539 0.3765763 0
2.8070335 -1.0433687 0.47430936 0
2.7048051 -1.0064454 0.56097847 0
2.7134266 -1.0107318 -0.050542168 0
2.8315105 -1.0603485 0.05277608 0
2.9662774 -1.1114066 0.16600966 0
2.994102 -1.123024 0.27976993 0
2.8786745 -1.0808759 0.37755126 0
2.8144696 -1.0573289 0.47618657 0
2.714139 -1.0207183 0.56364983 0
2.7173676 -1.0230155 -0.050681788 0
2.8261087 -1.0690249 0.05274117 0
2.9623799 -1.1217541 0.16600966 0
3.0013418 -1.1377058 0.28081581 0
2.8899231 -1.0960476 0.37950116 0
2.814455 -1.0685492 0.4768123 0
2.7419391 -1.0415649 0.57013732 0
2.6988285 -1.026806 -0.050402552 0
2.8298314 -1.0817394 0.052880794 0
2.958446 -1.1320878 0.16600966 0
3.0049956 -1.150502 0.28151307 0
2.9009085 -1.111812 0.38145107 0
2.8180854 -1.0811973 0.47806379 0
2.7437854 -1.0532405 0.57128215 0
2.6989608 -1.0376556 -0.05047236 0
2.811115 -1.0858464 0.052601553 0
2.9693792 -1.1481704 0.16684705 0
3.0119069 -1.1658232 0.28255892 0
2.9192231 -1.1305341 0.38437593 0
2.8271868 -1.0960258 0.48025388 0
2.7527184 -1.0682619 0.57395351 0
2.6990499 -1.0485187 -0.050542168 0
2.8071165 -1.0961425 0.052601553 0
2.9690738 -1.1599821 0.16705638 0
3.0300853 -1.1850379 0.28465065 0
2.9113629 -1.1397785 0.38388845 0
2.8343797 -1.1102105 0.48213109 0
2.7508006 -1.0785809 0.5743351 0
2.7028193 -1.0608561 -0.050681788 0
2.8146276 -1.1098465 0.052810986 0
2.9464288 -1.1630059 0.16600966 0
3.0426073 -1.202197 0.28621945 0
2.918644 -1.1538055 0.38535091 0
2.8451812 -1.1259125 0.48463401 0
2.761812 -1.0934787 0.57738805 0
2.7065938 -1.0727092 0.67215377 0
2.6953821 -1.0688101 -0.050611977 0
2.8125942 -1.1204046 0.052845888 0
2.9462667 -1.1742492 0.16621901 0
3.046006 -1.2152331 0.2869167 0
2.9348772 -1.172085 0.38803205 0
2.8579412 -1.1419379 0.48744985 0
2.7834978 -1.1133196 0.58273071 0
2.6992147 -1.0807018 0.67125398 0
2.691823 -1.0777425 -0.050611977 0
2.8070083 -1.1289792 0.052810986 0
2.9495606 -1.1875103 0.1666377 0
3.0435934 -1.226603 0.28709102 0
2.951226 -1.1899766 0.39071316 0
2.8576014 -1.1533856 0.48807558 0
2.7979951 -1.1298953 0.5865469 0
2.7154896 -1.0976803 0.67620283 0
2.6769216 -1.0826337 -0.050402552 0
2.7991464 -1.1377538 0.05274117 0
2.9453976 -1.1977987 0.1666377 0
3.0374479 -1.2364684 0.2869167 0
2.9431679 -1.1992873 0.39022568 0
2.8590453 -1.1655908 0.48901421 0
2.781111 -1.1349503 0.58387554 0
2.7240765 -1.1127844 0.67935222 0
2.6805308 -1.094996 -0.050542168 0
2.7916579 -1.1455115 0.052671362 0
2.9485886 -1.2111083 0.16705638 0
3.0128436 -1.2387297 0.28499928 0
2.9226525 -1.2022439 0.38803205 0
2.8513062 -1.1740594 0.48838848 0
2.7718861 -1.1419231 0.58273071 0
2.713165 -1.11884 0.67755258 0
2.687784 -1.1089222 -0.0507516 0
2.791337 -1.1567805 0.05274117 0
2.933274 -1.2168016 0.16642836 0
3.005039 -1.2471863 0.28465065 0
2.9037726 -1.2063459 0.38608211 0
2.8453665 -1.1832466 0.48807558 0
2.7678833 -1.1515919 0.58273071 0
2.6930525 -1.1215609 0.67350346 0
2.6838965 -1.1182976 -0.0507516 0
2.7983501 -1.1711491 0.052950602 0
2.9290087 -1.2270331 0.16642836 0
2.9859667 -1.251507 0.28325617 0
2.88673 -1.2110988 0.38437593 0
2.8138995 -1.1816988 0.48338255 0
2.7602267 -1.1597255 0.58196747 0
2.6801393 -1.1271772 0.67125398 0
2.67629 -1.1261082 -0.050681788 0
2.7979288 -1.1824669 0.05302041 0
2.9283867 -1.2388062 0.1666377 0
2.9595621 -1.2526034 0.28116441 0
2.8751738 -1.2180705 0.38340098 0
2.8079388 -1.1907427 0.48306966 0
2.7489324 -1.1662863 0.580441 0
2.672601 -1.1350024 0.67035419 0
2.672343 -1.1354432 -0.050681788 0
2.7864275 -1.1890868 0.052880794 0
2.9313915 -1.2521589 0.16705638 0
2.9368508 -1.255097 0.2794213 0
2.8563032 -1.2218535 0.38145107 0
2.7910538 -1.1950941 0.4808796 0
2.7249937 -1.1673707 0.57624322 0
2.6668317 -1.1435565 0.66990423 0
2.6646879 -1.1431879 -0.050611977 0
2.7859325 -1.2003886 0.052950602 0
2.9380066 -1.2671295 0.16768442 0
2.928793 -1.2637621 0.27907267 0
2.8374422 -1.2255195 0.37950116 0
2.7832391 -1.2032617 0.48025388 0
2.7046847 -1.1698612 0.57280862 0
2.6716909 -1.1572512 -0.050821409 0
2.7780583 -1.2085106 0.052880794 0
2.9244094 -1.2733905 0.16716106 0
2.9134042 -1.2692034 0.27802682 0
2.8222294 -1.230656 0.37803873 0
2.7681592 -1.2082285 0.47837666 0
2.6915889 -1.1753669 0.57090056 0
2.667635 -1.1665701 -0.050821409 0
2.78847 -1.2246332 0.05316003 0
2.9126329 -1.2803758 0.16674237 0
2.9016612 -1.2761569 0.27732956 0
2.8106489 -1.2373006 0.37706378 0
2.7458482 -1.2099184 0.47524795 0
2.6784873 -1.1807952 0.56899244 0
2.6635468 -1.1758748 -0.050821409 0
2.7841783 -1.2343593 0.05316003 0
2.9245763 -1.2978262 0.16768442 0
2.878979 -1.2781932 0.27558646 0
2.8026848 -1.2454917 0.3765763 0
2.7325838 -1.2154819 0.47368363 0
2.6797302 -1.1925324 0.57013732 0
2.6557732 -1.1835371 -0.0507516 0
2.7689009 -1.2391692 0.052950602 0
2.9166105 -1.3058848 0.16747507 0
2.8563182 -1.2800866 0.27384335 0
2.7874527 -1.2503926 0.37511387 0
2.7249334 -1.2229191 0.4730579 0
2.6576426 -1.1938344 0.56632113 0
2.6627765 -1.1972576 -0.050961025 0
2.7757118 -1.2532818 0.05316003 0
2.9156747 -1.317703 0.16768442 0
2.8518324 -1.2900494 0.27384335 0
2.7652059 -1.2514445 0.37267649 0
2.7116513 -1.2283479 0.47149354 0
2.6339991 -1.1937265 0.5621233 0
2.6622226 -1.208198 -0.051030833 0
2.7713201 -1.2629633 0.05316003 0
2.8928857 -1.3195837 0.1666377 0
2.8366635 -1.2945361 0.27279747 0
2.7499871 -1.2561407 0.37121406 0
2.7073469 -1.237806 0.47149354 0
2.6262455 -1.2012804 0.56136012 0
2.657989 -1.2174835 -0.051030833 0
2.7741616 -1.2759717 0.053299651 0
2.8737481 -1.322992 0.16580033 0
2.8248887 -1.3010961 0.27210024 0
2.7311635 -1.2590836 0.36926416 0
2.6796925 -1.2364894 0.46742624 0
2.6220362 -1.2104403 0.56136012 0
2.6500928 -1.2250761 -0.050961025 0
2.7769458 -1.2890153 0.053439267 0
2.8654897 -1.331332 0.16559097 0
2.7986486 -1.300871 0.27000847 0
2.7285514 -1.2694466 0.36950788 0
2.6664064 -1.2416663 0.46586189 0
2.608897 -1.21544 0.559452 0
2.6494248 -1.23601 -0.051030833 0
2.7651858 -1.2953078 0.053299651 0
2.8590167 -1.3404784 0.16548631 0
2.7796607 -1.3038633 0.26861399 0
2.7205098 -1.2772762 0.3690204 0
2.6602678 -1.2501261 0.46554902 0
2.5850947 -1.2153512 0.55525422 0
2.6414757 -1.2435473 -0.050961025 0
2.7678792 -1.3083705 0.053439267 0
2.8434877 -1.3453251 0.16485828 0
2.7750924 -1.3135583 0.26861399 0
2.6927133 -1.2757159 0.36585179 0
2.6469636 -1.2551726 0.46398467 0
2.5648727 -1.2167941 0.55181968 0
2.6407311 -1.2544762 -0.051030833 0
2.7669053 -1.3197463 0.053509079 0
2.8135409 -1.3431958 0.16339287 0
2.7594728 -1.3185664 0.26756814 0
2.6703343 -1.2765458 0.36341441 0
2.6265292 -1.2567313 0.46116886 0
2.5710196 -1.2312745 0.55410933 0
2.647156 -1.2688726 -0.051240265 0
2.7638512 -1.3307458 0.053543981 0
2.8052361 -1.3512752 0.16318353 0
2.7494693 -1.3255951 0.2670452 0
2.6656375 -1.2863245 0.36341441 0
2.6043372 -1.2573038 0.45804018 0
2.6319091 -1.2728813 -0.051030833 0
2.7666185 -1.3433976 0.053683605 0
2.7969096 -1.359313 0.16297418 0
2.721534 -1.3238544 0.26477915 0
2.6613572 -1.295157 0.36341441 0
2.5892768 -1.2611969 0.45616296 0
2.6274498 -1.2820606 -0.051030833 0
2.7511377 -1.3477683 0.053474173 0
2.7778013 -1.3620334 0.16213681 0
2.7046075 -1.3267299 0.26355895 0
2.6461289 -1.2991897 0.36195198 0
2.5777674 -1.2667427 0.4549115 0
2.6337235 -1.2965235 -0.051240265 0
2.7500017 -1.3591353 0.053543981 0
2.762289 -1.3664081 0.16150878 0
2.7017457 -1.3370466 0.2637333 0
2.6166739 -1.2960832 0.35853964 0
2.5733299 -1.2757331 0.4549115 0
2.6327634 -1.307488 -0.051310074 0
2.752399 -1.3722955 0.053683605 0
2.7396314 -1.3671241 0.16046207 0
2.6863666 -1.3411294 0.26268741 0
2.6050308 -1.3016601 0.35756469 0
2.561794 -1.2811736 0.45366001 0
2.6317596 -1.3184614 -0.051379886 0
2.7511652 -1.3836918 0.053753413 0
2.7277067 -1.3730867 0.16004337 0
2.6781099 -1.3487062 0.26233879 0
2.596926 -1.3089584 0.35707721 0
2.5361423 -1.2794312 0.44990557 0
2.6235714 -1.3258361 -0.051310074 0
2.7481017 -1.3941915 0.053788319 0
2.7157738 -1.3789829 0.15962468 0
2.655622 -1.3490229 0.26059568 0
2.5888019 -1.316216 0.35658973 0
2.5210977 -1.282901 0.44802836 0
2.6189272 -1.334986 -0.051310074 0
2.7343175 -1.3992208 0.053613789 0
2.7038329 -1.3848124 0.15920599 0
2.6367116 -1.351016 0.25920117 0
2.5771263 -1.3216213 0.35561478 0
2.5324206 -1.2998117 0.4508442 0
2.6178086 -1.3459483 -0.051379886 0
2.7294164 -1.4087569 0.053613789 0
2.6992259 -1.3937709 0.15920599 0
2.6302094 -1.3592968 0.25902686 0
2.5513389 -1.3196651 0.35268989 0
2.6204321 -1.3583028 -0.051519506 0
2.7176342 -1.4141082 0.053474173 0
2.6697869 -1.3898031 0.15774059 0
2.6168528 -1.3634084 0.25815532 0
2.5381479 -1.3235291 0.35147122 0
2.6283193 -1.373468 -0.051763836 0
2.7182424 -1.4258991 0.053578887 0
2.6578457 -1.3954003 0.1573219 0
2.6087894 -1.3702259 0.25780669 0
2.5267167 -1.328244 0.35049626 0
2.6305854 -1.3863636 -0.05190346 0
2.7097135 -1.4335086 0.053509079 0
2.6423683 -1.3990619 0.15669388 0
2.5826242 -1.3685834 0.25571495 0
2.5185571 -1.3351963 0.35000879 0
2.6797431 -1.4302485 0.05302041 0
2.6336994 -1.4068552 0.15648453 0
2.562016 -1.3691385 0.25414613 0
2.5066447 -1.3406733 0.34903383 0
2.6523197 -1.4221612 -0.052531745 0
2.6694517 -1.4367507 0.052915696 0
2.6217389 -1.4122512 0.15606584 0
2.5642366 -1.3818541 0.25484338 0
2.6573901 -1.4422445 0.05277608 0
2.6062627 -1.4156743 0.1554378 0
2.5523953 -1.3869913 0.25414613 0
2.6488314 -1.4495918 0.052706268 0
2.590795 -1.4190066 0.15480977 0
2.5422964 -1.3930202 0.25362319 0
2.6367517 -1.4549646 0.052566648 0
2.5788324 -1.4241793 0.15439108 0
2.5356746 -1.4009227 0.2534489 0
2.6106873 -1.4524933 0.052147791 0
2.5738454 -1.4331725 0.15439108 0
2.5986254 -1.4576842 0.052008174 0
2.5740519 -1.4450811 0.15470509 0
