# .PCD v0.7 - Point Cloud Data file format
VERSION 0.7
FIELDS x y z intensity
SIZE 4 4 4 4
TYPE F F F F
COUNT 1 1 1 1
WIDTH 165
HEIGHT 1
VIEWPOINT 0 0 0 1 0 0 0
POINTS 165
DATA ascii
3.0410645 -1.2161024 0.27804855 100
3.0356214 -1.2145773 0.28453112 100
3.0301783 -1.2130524 0.29101372 100
3.024735 -1.2115275 0.29749632 100
3.0192919 -1.2100025 0.30397892 100
3.0138488 -1.2084776 0.31046152 100
3.0084054 -1.2069526 0.31694412 100
3.0029624 -1.2054276 0.32342672 100
2.9975193 -1.2039027 0.32990932 100
2.9920759 -1.2023778 0.3363919 100
2.9866328 -1.2008529 0.3428745 100
2.9811897 -1.1993279 0.3493571 100
2.9757464 -1.1978029 0.3558397 100
2.9703033 -1.196278 0.3623223 100
2.9648602 -1.1947531 0.3688049 100
2.9594169 -1.1932281 0.3752875 100
2.9539738 -1.1917032 0.3817701 100
2.9485307 -1.1901782 0.38825271 100
2.9430873 -1.1886532 0.39473531 100
2.9376442 -1.1871283 0.40121791 100
2.9322011 -1.1856034 0.40770051 100
2.9267578 -1.1840785 0.41418311 100
2.9213147 -1.1825534 0.42066571 100
2.9158716 -1.1810285 0.42714831 100
2.9104283 -1.1795036 0.43363091 100
2.9049852 -1.1779786 0.44011351 100
2.8995421 -1.1764537 0.44659609 100
2.8940988 -1.1749287 0.45307869 100
2.8886557 -1.1734037 0.45956129 100
2.8832126 -1.1718788 0.46604386 100
2.8777695 -1.1703539 0.47252646 100
2.8723261 -1.168829 0.47900906 100
2.866883 -1.167304 0.48549163 100
2.8614399 -1.165779 0.49197423 100
2.8559966 -1.1642541 0.49845684 100
2.8505535 -1.1627291 0.50493944 100
2.8451104 -1.1612042 0.51142198 100
2.8396673 -1.1596793 0.51790458 100
2.834224 -1.1581544 0.52438718 100
2.8287809 -1.1566293 0.53086978 100
2.8233378 -1.1551044 0.53735238 100
2.8178945 -1.1535795 0.54383498 100
2.8124514 -1.1520545 0.55031753 100
2.8070083 -1.1505296 0.55680013 100
2.8015649 -1.1490047 0.56328273 100
2.7961218 -1.1474797 0.56976533 100
2.7906787 -1.1459547 0.57624793 100
2.7852356 -1.1444298 0.58273053 100
2.7797923 -1.1429049 0.58921307 100
2.7743492 -1.14138 0.59569567 100
2.7689061 -1.1398549 0.60217828 100
2.7634628 -1.13833 0.60866088 100
2.7580197 -1.1368051 0.61514348 100
2.7525766 -1.1352801 0.62162608 100
2.7471333 -1.1337552 0.62810862 100
2.7416902 -1.1322303 0.63459122 100
2.7362471 -1.1307052 0.64107382 100
2.730804 -1.1291803 0.64755642 100
3.0450304 -1.1781467 0.23980664 100
3.0428989 -1.1706471 0.23642296 100
3.0407674 -1.1631477 0.23303926 100
3.038636 -1.1556481 0.22965558 100
3.0365045 -1.1481485 0.2262719 100
3.034373 -1.1406491 0.2228882 100
3.0322416 -1.1331495 0.21950452 100
3.0301101 -1.1256499 0.21612082 100
3.0279787 -1.1181505 0.21273714 100
3.0258472 -1.1106509 0.20935346 100
3.0237157 -1.1031513 0.20596977 100
3.0215843 -1.0956519 0.20258608 100
3.0194528 -1.0881523 0.1992024 100
3.0173213 -1.0806527 0.19581871 100
3.0151899 -1.0731533 0.19243503 100
3.0130584 -1.0656537 0.18905133 100
3.010927 -1.0581541 0.18566765 100
3.0087955 -1.0506546 0.18228395 100
3.006664 -1.0431551 0.17890027 100
3.0045326 -1.0356555 0.17551658 100
3.0024011 -1.0281559 0.17213289 100
3.0002697 -1.0206565 0.1687492 100
2.9981382 -1.0131569 0.16536552 100
2.9960067 -1.0056573 0.16198182 100
2.993875 -0.9981578 0.15859814 100
2.9917436 -0.99065828 0.15521444 100
2.9896121 -0.98315877 0.15183076 100
2.9874806 -0.97565919 0.14844708 100
2.9853492 -0.96815968 0.1450634 100
2.9832177 -0.96066016 0.1416797 100
2.9810863 -0.95316064 0.13829602 100
2.9789548 -0.94566107 0.13491234 100
2.9768233 -0.93816155 0.13152866 100
2.9746919 -0.93066204 0.12814498 100
2.9725604 -0.92316252 0.12476129 100
2.9704289 -0.91566294 0.12137761 100
2.9682975 -0.90816343 0.11799393 100
2.966166 -0.90066391 0.11461024 100
2.9640346 -0.8931644 0.11122656 100
2.9619031 -0.88566488 0.10784287 100
2.9597716 -0.8781653 0.10445919 100
2.9576402 -0.87066579 0.10107551 100
2.9555087 -0.86316627 0.097691819 100
2.9533772 -0.85566676 0.094308138 100
2.9512458 -0.84816718 0.090924457 100
2.9491143 -0.84066767 0.087540768 100
2.9469829 -0.83316815 0.084157087 100
2.9448514 -0.82566863 0.080773406 100
2.9427199 -0.81816906 0.077389717 100
2.9405885 -0.81066954 0.074006036 100
2.938457 -0.80317003 0.070622355 100
2.9363256 -0.79567051 0.067238666 100
2.9341941 -0.78817099 0.063854985 100
2.9320626 -0.78067142 0.060471304 100
2.6829147 -1.4541868 0.027533352 100
2.6892781 -1.4502143 0.031469066 100
2.6956418 -1.4462416 0.035404779 100
2.7020051 -1.442269 0.039340492 100
2.7083688 -1.4382964 0.043276202 100
2.7147322 -1.4343238 0.047211915 100
2.7210956 -1.4303511 0.051147629 100
2.7274592 -1.4263786 0.055083342 100
2.7338226 -1.422406 0.059019051 100
2.740186 -1.4184334 0.062954769 100
2.7465496 -1.4144608 0.066890478 100
2.752913 -1.4104881 0.070826188 100
2.7592764 -1.4065156 0.074761897 100
2.76564 -1.4025429 0.078697614 100
2.7720034 -1.3985703 0.082633331 100
2.778367 -1.3945978 0.086569048 100
2.7847304 -1.3906251 0.090504758 100
2.7910938 -1.3866525 0.094440475 100
2.7974575 -1.3826799 0.098376192 100
2.8038208 -1.3787073 0.1023119 100
2.8101842 -1.3747346 0.10624762 100
2.8165479 -1.3707621 0.11018334 100
2.8229113 -1.3667895 0.11411905 100
2.8292749 -1.3628168 0.11805476 100
2.8356383 -1.3588442 0.12199048 100
2.8420017 -1.3548716 0.1259262 100
2.8483653 -1.350899 0.12986191 100
2.8547287 -1.3469265 0.13379762 100
2.8610921 -1.3429538 0.13773333 100
2.8674557 -1.3389812 0.14166903 100
2.8738191 -1.3350086 0.14560473 100
2.8801825 -1.331036 0.14954044 100
2.8865461 -1.3270633 0.15347615 100
2.8929095 -1.3230908 0.15741186 100
2.8992729 -1.3191181 0.16134757 100
2.9056365 -1.3151456 0.16528328 100
2.9119999 -1.311173 0.16921899 100
2.9183633 -1.3072003 0.1731547 100
2.924727 -1.3032278 0.17709041 100
2.9310904 -1.2992551 0.18102612 100
2.9374537 -1.2952825 0.18496183 100
2.9438174 -1.29131 0.18889754 100
2.9501808 -1.2873373 0.19283324 100
2.9565442 -1.2833648 0.19676895 100
2.9629078 -1.2793921 0.20070466 100
2.9692712 -1.2754195 0.20464037 100
2.9756346 -1.2714469 0.20857608 100
2.9819982 -1.2674743 0.21251179 100
2.9883616 -1.2635016 0.2164475 100
2.994725 -1.2595291 0.22038321 100
3.0010886 -1.2555565 0.22431892 100
3.007452 -1.2515839 0.22825462 100
3.0138154 -1.2476113 0.23219033 100
