# .PCD v0.7 - Point Cloud Data file format
VERSION 0.7
FIELDS x y z rgb
SIZE 4 4 4 4
TYPE F F F U
COUNT 1 1 1 1
WIDTH 426
HEIGHT 1
VIEWPOINT 0 0 0 1 0 0 0
POINTS 426
DATA ascii
2.8589504 -0.74310249 0.15480977 4286837397
2.921968 -0.76928997 0.05274117 4286837397
2.9367898 -0.78361511 0.053055316 4286837397
2.8518963 -0.76202971 0.15470509 4286837397
2.9004934 -0.7760998 0.26268741 4286837397
2.9224548 -0.79072797 0.052845888 4286837397
2.866569 -0.77668101 0.15564716 4286837397
2.9119632 -0.7988084 0.052706268 4286837397
2.8792477 -0.79091477 0.15648453 4286837397
2.7893474 -0.76726687 0.25310028 4286837397
2.9225013 -0.81322843 0.052950602 4286837397
2.8764694 -0.80096042 0.15648453 4286837397
2.8077631 -0.78288519 0.2550177 4286837397
2.9197884 -0.82291543 0.052950602 4286837397
2.8775003 -0.81208116 0.15669388 4286837397
2.8165171 -0.79593223 0.25606358 4286837397
2.9188209 -0.83365154 0.052985508 4286837397
2.8901546 -0.82600963 0.15753125 4286837397
2.8138623 -0.80526775 0.25606358 4286837397
2.7460275 -0.78689212 0.35073999 4286837397
2.9083564 -0.84110385 0.052845888 4286837397
2.9026012 -0.84053743 0.15836863 4286837397
2.8148613 -0.81619471 0.25641218 4286837397
2.9015646 -0.85012633 0.05277608 4286837397
2.9111481 -0.85403776 0.15899664 4286837397
2.8236098 -0.82889193 0.25745806 4286837397
2.7310851 -0.8027662 0.34952128 4286837397
2.9062476 -0.86252511 0.052915696 4286837397
2.9081495 -0.86419421 0.15899664 4286837397
2.8397963 -0.8444218 0.25920117 4286837397
2.733974 -0.81399399 0.35025251 4286837397
2.903219 -0.87266469 0.052915696 4286837397
2.912765 -0.87664294 0.15941535 4286837397
2.848278 -0.85777658 0.26024702 4286837397
2.7539229 -0.83040953 0.3531774 4286837397
2.9001551 -0.88279349 0.052915696 4286837397
2.9287925 -0.89262766 0.16046207 4286837397
2.8451149 -0.8682102 0.26024702 4286837397
2.7586017 -0.84233624 0.35415235 4286837397
2.8930786 -0.8922385 0.052845888 4286837397
2.9369509 -0.90689182 0.16109009 4286837397
2.8458743 -0.87931263 0.26059568 4286837397
2.7706671 -0.85713482 0.35610226 4286837397
2.7303915 -0.84571952 0.45272139 4286837397
2.8149703 -0.87407148 -0.051449694 4286837397
2.8861287 -0.9011398 0.05277608 4286837397
2.9452052 -0.92071372 0.16171812 4286837397
2.8618031 -0.89518934 0.26233879 4286837397
2.7638695 -0.86561441 0.35561478 4286837397
2.7851946 -0.87549704 -0.050961025 4286837397
2.8829653 -0.91120881 0.05277608 4286837397
2.949753 -0.93288428 0.16213681 4286837397
2.8738565 -0.90998501 0.2637333 4286837397
2.7721846 -0.87885624 0.35707721 4286837397
2.7170403 -0.86189598 0.45146993 4286837397
2.7784646 -0.88351625 -0.050891217 4286837397
2.8951657 -0.92563576 0.053055316 4286837397
2.9578917 -0.94682866 0.16276483 4286837397
2.8782516 -0.92244339 0.26443052 4286837397
2.7843773 -0.89289367 0.35902712 4286837397
2.7046111 -0.86835557 0.44990557 4286837397
2.7582319 -0.88769603 -0.050577074 4286837397
2.8843067 -0.93327367 0.052915696 4286837397
2.9659691 -0.96084088 0.16339287 4286837397
2.8827579 -0.93444026 0.26512775 4286837397
2.8001249 -0.90873533 0.3614645 4286837397
2.6996846 -0.8771807 0.44959271 4286837397
2.7399054 -0.89236444 -0.050297838 4286837397
2.865828 -0.93835813 0.052636456 4286837397
2.9758821 -0.97554338 0.16412558 4286837397
2.8887789 -0.94810647 0.26599932 4286837397
2.8082519 -0.92222017 0.36292693 4286837397
2.719125 -0.8940028 0.45334715 4286837397
2.7443705 -0.90442663 -0.050437454 4286837397
2.8661659 -0.95011413 0.052706268 4286837397
2.9950337 -0.99399328 0.16538164 4286837397
2.894906 -0.9613238 0.26687086 4286837397
2.8010857 -0.93125421 0.36243945 4286837397
2.7233272 -0.90645832 0.45459861 4286837397
2.7562125 -0.91954201 -0.050716694 4286837397
2.8628321 -0.96011299 0.052706268 4286837397
2.9915457 -1.0044419 0.16538164 4286837397
2.9064715 -0.97700649 0.26826537 4286837397
2.8128698 -0.94608879 0.36438939 4286837397
2.7388673 -0.92226279 0.45772728 4286837397
2.7491965 -0.92787838 -0.050646886 4286837397
2.8634198 -0.9708854 0.05277608 4286837397
2.9919808 -1.0156406 0.16559097 4286837397
2.9184802 -0.99125874 0.26965985 4286837397
2.8209934 -0.9592458 0.36585179 4286837397
2.7395337 -0.93261331 0.45835301 4286837397
2.738534 -0.93440694 -0.050507262 4286837397
2.8600132 -0.98087484 0.05277608 4286837397
2.9959736 -1.0286729 0.16600966 4286837397
2.9185958 -1.003244 0.27000847 4286837397
2.8326452 -0.9742521 0.3678017 4286837397
2.7456005 -0.94538599 0.45991737 4286837397
2.7005823 -0.93093967 0.55525422 4286837397
2.7390366 -0.94526535 -0.050577074 4286837397
2.8412859 -0.98610544 0.052496839 4286837397
3.0072763 -1.044891 0.16684705 4286837397
2.9263675 -1.0173513 0.27105436 4286837397
2.8365548 -0.98723775 0.36877668 4286837397
2.7607708 -0.96194243 0.46304604 4286837397
2.6954627 -0.93971437 0.55487263 4286837397
2.7317774 -0.95397937 -0.050507262 4286837397
2.843487 -0.99800414 0.052601553 4286837397
3.0073793 -1.056706 0.16705638 4286837397
2.9378355 -1.0328463 0.27244884 4286837397
2.8368363 -0.99845117 0.36926416 4286837397
2.7760274 -0.97813821 0.46617478 4286837397
2.6921659 -0.94911766 0.55487263 4286837397
2.7435155 -0.96883613 -0.050786503 4286837397
2.8437548 -1.0092613 0.052671362 4286837397
2.9906838 -1.0619947 0.16632369 4286837397
2.9567397 -1.0511035 0.27454057 4286837397
2.8408144 -1.0110099 0.37023908 4286837397
2.7764904 -0.98866379 0.46680051 4286837397
2.6851377 -0.95719069 0.55410933 4286837397
2.7327545 -0.97524029 -0.050646886 4286837397
2.844157 -1.0200361 0.05274117 4286837397
2.9871457 -1.0719062 0.16632369 4286837397
2.9607384 -1.0635971 0.27523783 4286837397
2.8523901 -1.025799 0.37218902 4286837397
2.7806315 -1.0005406 0.46805197 4286837397
2.6985726 -0.97207791 0.55754393 4286837397
2.7182186 -0.98022687 -0.050437454 4286837397
2.8445191 -1.0308248 0.052810986 4286837397
2.9777532 -1.0802833 0.16600966 4286837397
2.9609408 -1.0747689 0.27558646 4286837397
2.8676298 -1.0420318 0.3746264 4286837397
2.7808344 -1.0115913 0.4686777 4286837397
2.7062314 -0.98552263 0.55983365 4286837397
2.7222953 -0.99244899 -0.050577074 4286837397
2.8294566 -1.0371141 0.052601553 4286837397
2.9868987 -1.0960062 0.16674237 4286837397
2.9644628 -1.0883608 0.27628368 4286837397
2.8749709 -1.0566441 0.37608883 4286837397
2.7900853 -1.0265516 0.47086781 4286837397
2.7062857 -0.9967919 0.56059688 4286837397
2.7148869 -1.0010364 -0.050507262 4286837397
2.8200114 -1.0453925 0.052496839 4286837397
2.9849274 -1.1071205 0.16684705 4286837397
2.9753962 -1.1047668 0.27767819 4286837397
2.8710787 -1.0671743 0.37608883 4286837397
2.8068511 -1.0438586 0.47430936 4286837397
2.7175088 -1.0117123 0.56364983 4286837397
2.7151241 -1.0119038 -0.050577074 4286837397
2.829638 -1.0596473 0.05274117 4286837397
2.9662774 -1.1114066 0.16600966 4286837397
2.990371 -1.1216246 0.2794213 4286837397
2.8823915 -1.0822716 0.37803873 4286837397
2.8089218 -1.0552448 0.47524795 4286837397
2.7178142 -1.0221006 0.56441307 4286837397
2.7229819 -1.0251291 -0.050786503 4286837397
2.8261087 -1.0690249 0.05274117 4286837397
2.9661155 -1.1231686 0.16621901 4286837397
2.9978142 -1.1357702 0.28046718 4286837397
2.8899231 -1.0960476 0.37950116 4286837397
2.8052213 -1.0650433 0.47524795 4286837397
2.7309272 -1.037382 0.56784761 4286837397
2.7006972 -1.0275171 -0.050437454 4286837397
2.8260956 -1.0803114 0.052810986 4286837397
2.9621768 -1.1335155 0.16621901 4286837397
3.0087168 -1.1519266 0.28186166 4286837397
2.9046156 -1.1132329 0.38193855 4286837397
2.8125525 -1.0790745 0.4771252 4286837397
2.7437854 -1.0532405 0.57128215 4286837397
2.697094 -1.036938 -0.050437454 4286837397
2.8148458 -1.0872874 0.052671362 4286837397
2.9656537 -1.1467297 0.1666377 4286837397
3.01211 -1.1652975 0.28255892 4286837397
2.9155209 -1.1291002 0.38388845 4286837397
2.8290286 -1.0967399 0.48056671 4286837397
2.7400923 -1.0628116 0.57128215 4286837397
2.697186 -1.0477946 -0.050507262 4286837397
2.8073077 -1.0956526 0.052601553 4286837397
2.965353 -1.1585284 0.16684705 4286837397
3.0302923 -1.184509 0.28465065 4286837397
2.911562 -1.1392703 0.38388845 4286837397
2.8398976 -1.1123719 0.48306966 4286837397
2.7455049 -1.0759516 0.57319027 4286837397
2.7009578 -1.0601256 -0.050646886 4286837397
2.8034658 -1.1054451 0.052601553 4286837397
2.9466319 -1.1624917 0.16600966 4286837397
3.0409639 -1.2009341 0.28604513 4286837397
2.9223361 -1.1552651 0.38583836 4286837397
2.8508883 -1.1275955 0.48557264 4286837397
2.7599864 -1.0927559 0.57700646 4286837397
2.6921005 -1.0669651 0.66855454 4286837397
2.7011456 -1.07055 -0.050716694 4286837397
2.8109319 -1.119174 0.052810986 4286837397
2.9462667 -1.1742492 0.16621901 4286837397
3.046006 -1.2152331 0.2869167 4286837397
2.9350817 -1.1715728 0.38803205 4286837397
2.8561068 -1.1412048 0.48713696 4286837397
2.7818692 -1.1121051 0.58234906 4286837397
2.6975939 -1.0795068 0.67080402 4286837397
2.6899667 -1.0769992 -0.050577074 4286837397
2.814429 -1.1319638 0.052950602 4286837397
2.9458551 -1.1860183 0.16642836 4286837397
3.0438075 -1.2260717 0.28709102 4286837397
2.943862 -1.1870073 0.3897382 4286837397
2.8576014 -1.1533856 0.48807558 4286837397
2.8016357 -1.1313655 0.58731008 4286837397
2.7172966 -1.0984107 0.67665279 4286837397
2.6861908 -1.0863824 -0.050577074 4286837397
2.7919343 -1.1342546 0.052601553 4286837397
2.9453976 -1.1977987 0.1666377 4286837397
3.030282 -1.232935 0.28621945 4286837397
2.9433773 -1.1987736 0.39022568 4286837397
2.8590453 -1.1655908 0.48901421 4286837397
2.7922161 -1.1389138 0.58616525 4286837397
2.7224665 -1.1115723 0.67890227 4286837397
2.6860845 -1.0972646 -0.050646886 4286837397
2.7953579 -1.1470299 0.05274117 4286837397
2.9485886 -1.2111083 0.16705638 4286837397
3.0204308 -1.241233 0.28569651 4286837397
2.9189806 -1.2007335 0.38754454 4286837397
2.856786 -1.1763158 0.48932707 4286837397
2.7718861 -1.1419231 0.58273071 4286837397
2.7113638 -1.1180971 0.67710268 4286837397
2.6896322 -1.1096848 -0.050786503 4286837397
2.7987266 -1.1598428 0.052880794 4286837397
2.933274 -1.2168016 0.16642836 4286837397
2.997678 -1.2441313 0.2839534 4286837397
2.9037726 -1.2063459 0.38608211 4286837397
2.8398948 -1.1809711 0.48713696 4286837397
2.769696 -1.1523461 0.58311236 4286837397
2.6894546 -1.1200626 0.67260367 4286837397
2.6857421 -1.1190666 -0.050786503 4286837397
2.794661 -1.1696051 0.052880794 4286837397
2.9253244 -1.2254897 0.16621901 4286837397
2.9896419 -1.2530475 0.28360477 4286837397
2.8995438 -1.2164748 0.38608211 4286837397
2.815721 -1.1824636 0.48369545 4286837397
2.7547967 -1.1574441 0.58082259 4286837397
2.6729538 -1.1241553 0.66945434 4286837397
2.6781332 -1.1268837 -0.050716694 4286837397
2.794245 -1.1809101 0.052950602 4286837397
2.9283867 -1.2388062 0.1666377 4286837397
2.9577274 -1.2518269 0.28099012 4286837397
2.8824852 -1.221168 0.38437593 4286837397
2.7970271 -1.1861155 0.48119247 4286837397
2.7579689 -1.1701202 0.58234906 4286837397
2.6708074 -1.1342406 0.66990423 4286837397
2.6631405 -1.1315333 -0.050507262 4286837397
2.7790704 -1.1859473 0.05274117 4286837397
2.9405749 -1.2560816 0.16757976 4286837397
2.9368508 -1.255097 0.2794213 4286837397
2.8599534 -1.223415 0.38193855 4286837397
2.7928698 -1.1958718 0.48119247 4286837397
2.7286029 -1.1689169 0.57700646 4286837397
2.6704137 -1.1450925 0.67080402 4286837397
2.6720388 -1.1463416 -0.0507516 4286837397
2.7785869 -1.1972234 0.052810986 4286837397
2.9361725 -1.2663385 0.16757976 4286837397
2.9251344 -1.2621834 0.27872407 4286837397
2.8410869 -1.2270938 0.37998864 4286837397
2.7777994 -1.20091 0.47931525 4286837397
2.7010808 -1.1683024 0.57204539 4286837397
2.6716909 -1.1572512 -0.050821409 4286837397
2.7817254 -1.210106 0.052950602 4286837397
2.9244094 -1.2733905 0.16716106 4286837397
2.9134042 -1.2692034 0.27802682 4286837397
2.8222294 -1.230656 0.37803873 4286837397
2.7681592 -1.2082285 0.47837666 4286837397
2.6915889 -1.1753669 0.57090056 4286837397
2.6712992 -1.1681725 -0.050891217 4286837397
2.7811463 -1.2214167 0.05302041 4286837397
2.9199467 -1.2835909 0.16716106 4286837397
2.9016612 -1.2761569 0.27732956 4286837397
2.8106489 -1.2373006 0.37706378 4286837397
2.7476559 -1.2107151 0.47556084 4286837397
2.6874695 -1.184755 0.57090056 4286837397
2.6635468 -1.1758748 -0.050821409 4286837397
2.7841783 -1.2343593 0.05316003 4286837397
2.9248028 -1.2973158 0.16768442 4286837397
2.8753371 -1.2765763 0.27523783 4286837397
2.8026848 -1.2454917 0.3765763 4286837397
2.7309906 -1.2142024 0.47337076 4286837397
2.6725557 -1.1893396 0.56861085 4286837397
2.6559794 -1.1830738 -0.0507516 4286837397
2.7691171 -1.2386861 0.052950602 4286837397
2.9202564 -1.3075173 0.16768442 4286837397
2.8635907 -1.2833458 0.27454057 4286837397
2.7876709 -1.2499061 0.37511387 4286837397
2.7249334 -1.2229191 0.4730579 4286837397
2.6596417 -1.1941746 0.56670272 4286837397
2.6591287 -1.1956176 -0.050891217 4286837397
2.7720666 -1.251636 0.053090218 4286837397
2.9083943 -1.3144128 0.16726573 4286837397
2.8520577 -1.2895515 0.27384335 4286837397
2.7652059 -1.2514445 0.37267649 4286837397
2.7134504 -1.2291631 0.47180638 4286837397
2.6304228 -1.1921057 0.56136012 4286837397
2.658581 -1.2065452 -0.050961025 4286837397
2.7749596 -1.2646219 0.053229842 4286837397
2.8928857 -1.3195837 0.1666377 4286837397
2.8366635 -1.2945361 0.27279747 4286837397
2.7463756 -1.254491 0.37072656 4286837397
2.7055504 -1.2369845 0.47118065 4286837397
2.6208894 -1.1988304 0.56021523 4286837397
2.6616254 -1.2191491 -0.051100649 4286837397
2.7705281 -1.2743006 0.053229842 4286837397
2.8773766 -1.3246624 0.16600966 4286837397
2.8212693 -1.2994289 0.27175158 4286837397
2.7419798 -1.26407 0.37072656 4286837397
2.6814864 -1.2373171 0.46773914 4286837397
2.6149063 -1.2071488 0.55983365 4286837397
2.6428323 -1.2217197 -0.050821409 4286837397
2.7733183 -1.2873315 0.053369459 4286837397
2.8654897 -1.331332 0.16559097 4286837397
2.7986486 -1.300871 0.27000847 4286837397
2.7303514 -1.2702841 0.36975163 4286837397
2.6681972 -1.2425003 0.46617478 4286837397
2.6053379 -1.213782 0.55868876 4286837397
2.6421759 -1.2326283 -0.050891217 4286837397
2.7615643 -1.2936113 0.053229842 4286837397
2.8590167 -1.3404784 0.16548631 4286837397
2.7832682 -1.3055556 0.26896262 4286837397
2.7151191 -1.2747452 0.36828917 4286837397
2.6566925 -1.2484459 0.46492329 4286837397
2.5833182 -1.2145159 0.55487263 4286837397
2.6414757 -1.2435473 -0.050961025 4286837397
2.7570319 -1.303243 0.053229842 4286837397
2.8434877 -1.3453251 0.16485828 4286837397
2.7732913 -1.3127059 0.26843968 4286837397
2.6891255 -1.2740161 0.36536431 4286837397
2.6469636 -1.2551726 0.46398467 4286837397
2.5648727 -1.2167941 0.55181968 4286837397
2.6479564 -1.2579085 -0.051170457 4286837397
2.7560756 -1.3145808 0.053299651 4286837397
2.8207505 -1.3466376 0.16381156 4286837397
2.7597029 -1.3180848 0.26756814 4286837397
2.6774983 -1.2799704 0.36438939 4286837397
2.6300929 -1.2584364 0.46179458 4286837397
2.5747764 -1.2325212 0.55487263 4286837397
2.6399429 -1.2654153 -0.051100649 4286837397
2.7640834 -1.3302634 0.053543981 4286837397
2.8016374 -1.3495417 0.16297418 4286837397
2.7532902 -1.326845 0.2673938 4286837397
2.6694379 -1.2875839 0.36390188 4286837397
2.6061158 -1.2581625 0.45835301 4286837397
2.6319091 -1.2728813 -0.051030833 4286837397
2.7630208 -1.3416507 0.053613789 4286837397
2.7933171 -1.357567 0.16276483 4286837397
2.7253482 -1.3251219 0.26512775 4286837397
2.6577876 -1.2934197 0.36292693 4286837397
2.587501 -1.2603319 0.45585006 4286837397
2.6274498 -1.2820606 -0.051030833 4286837397
2.7529335 -1.3486482 0.053509079 4286837397
2.781388 -1.3637921 0.16234615 4286837397
2.7028186 -1.3258524 0.26338464 4286837397
2.642565 -1.2974399 0.3614645 4286837397
2.5759945 -1.2658714 0.45459861 4286837397
2.6337235 -1.2965235 -0.051240265 4286837397
2.7500017 -1.3591353 0.053543981 4286837397
2.7658694 -1.3681792 0.16171812 4286837397
2.6946027 -1.3335116 0.26303601 4286837397
2.6202316 -1.2978454 0.35902712 4286837397
2.5680203 -1.2731009 0.45397288 4286837397
2.6327634 -1.307488 -0.051310074 4286837397
2.752399 -1.3722955 0.053683605 4286837397
2.7467797 -1.3706912 0.16088074 4286837397
2.6863666 -1.3411294 0.26268741 4286837397
2.6050308 -1.3016601 0.35756469 4286837397
2.5600274 -1.28029 0.45334715 4286837397
2.6317596 -1.3184614 -0.051379886 4286837397
2.7511652 -1.3836918 0.053753413 4286837397
2.7279463 -1.3726106 0.16004337 4286837397
2.6709919 -1.3451216 0.26164153 4286837397
2.5933807 -1.3071715 0.35658973 4286837397
2.5346014 -1.2780992 0.44959271 4286837397
2.6202331 -1.3235749 -0.051240265 4286837397
2.7519121 -1.3955207 0.053858127 4286837397
2.7231383 -1.3821245 0.16004337 4286837397
2.655622 -1.3490229 0.26059568 4286837397
2.5890317 -1.3157642 0.35658973 4286837397
2.5266035 -1.2851477 0.44896698 4286837397
2.615597 -1.3327132 -0.051240265 4286837397
2.7345614 -1.3987436 0.053613789 4286837397
2.7005188 -1.3825201 0.15899664 4286837397
2.6404941 -1.3523723 0.2595498 4286837397
2.5738237 -1.3193603 0.35512727 4286837397
2.6180434 -1.3454915 -0.051379886 4286837397
2.7296624 -1.4082804 0.053613789 4286837397
2.6956766 -1.3919383 0.15899664 4286837397
2.6286764 -1.3579234 0.25885254 4286837397
2.5550959 -1.3210433 0.3531774 4286837397
2.6239829 -1.3601434 -0.051589314 4286837397
2.7247298 -1.4178003 0.053613789 4286837397
2.6660016 -1.388424 0.15753125 4286837397
2.6168528 -1.3634084 0.25815532 4286837397
2.5416684 -1.3253648 0.35195872 4286837397
2.6280794 -1.3739268 -0.051763836 4286837397
2.7197642 -1.4273026 0.053613789 4286837397
2.6540658 -1.3940066 0.15711255 4286837397
2.6085503 -1.3706812 0.25780669 4286837397
2.5264847 -1.3286849 0.35049626 4286837397
2.61973 -1.3812268 -0.051694028 4286837397
2.7023935 -1.4302399 0.053369459 4286837397
2.6456537 -1.4013929 0.15690321 4286837397
2.5861449 -1.3704493 0.25606358 4286837397
2.5218315 -1.3374958 0.35049626 4286837397
2.6832714 -1.4321316 0.053090218 4286837397
2.6372228 -1.4087372 0.15669388 4286837397
2.5708022 -1.3738339 0.2550177 4286837397
2.5101457 -1.3425457 0.34952128 4286837397
2.638221 -1.4146016 -0.052252505 4286837397
2.667691 -1.4358031 0.052880794 4286837397
2.6252556 -1.4141456 0.15627518 4286837397
2.5572212 -1.3780733 0.25414613 4286837397
2.6538751 -1.4403369 0.052706268 4286837397
2.5992427 -1.4118611 0.15501912 4286837397
2.5576472 -1.3898451 0.25466907 4286837397
2.6523395 -1.4515117 0.05277608 4286837397
2.5802846 -1.41325 0.15418173 4286837397
2.5457907 -1.394935 0.25397182 4286837397
2.63325 -1.4530325 0.052496839 4286837397
2.5788324 -1.4241793 0.15439108 4286837397
2.5391622 -1.4028496 0.25379753 4286837397
2.6141822 -1.4544377 0.052217599 4286837397
2.5703557 -1.4312291 0.15418173 4286837397
2.5951371 -1.4557275 0.051938362 4286837397
2.5636024 -1.4392148 0.15407708 4286837397
