# .PCD v0.7 - Point Cloud Data file format
VERSION 0.7
FIELDS x y z rgb
SIZE 4 4 4 4
TYPE F F F U
COUNT 1 1 1 1
WIDTH 1059
HEIGHT 1
VIEWPOINT 0 0 0 1 0 0 0
POINTS 1059
DATA ascii
-0.54398781 -0.96581703 0.058092915 4287527170
-0.57247871 -1.0159862 -0.2266811 4287527170
-0.54691124 -0.9702152 0.097440116 4287527170
-0.56569684 -1.0031313 -0.1824026 4287527170
-0.55012256 -0.97511619 0.13746862 4287527170
-0.56785524 -1.0061378 -0.14185593 4287527170
-0.53975171 -0.9559536 -0.096045621 4287527170
-0.52175367 -0.92332441 -0.055580791 4287527170
-0.52451968 -0.92784113 -0.018604266 4287527170
-0.47930178 -0.84750837 0.26088959 4287527170
-0.55961227 -0.98629773 -0.30385357 4287527170
-0.5328843 -0.93919063 0.0188486 4287527170
-0.58487928 -1.0304116 -0.2735405 4287527170
-0.54735589 -0.96391219 0.058092915 4287527170
-0.58668882 -1.0327591 -0.23087889 4287527170
-0.55029464 -0.96830022 0.097440116 4287527170
-0.57097232 -1.0046847 -0.18302836 4287527170
-0.55139089 -0.96983522 0.13698116 4287527170
-0.5898357 -1.0370339 -0.14648695 4287527170
-0.54407102 -0.95579529 -0.096219942 4287527170
-0.5248127 -0.92158914 -0.055580791 4287527170
-0.53369623 -0.93642867 -0.018813694 4287527170
-0.48512784 -0.85086489 0.26244253 4287527170
-0.56575638 -0.98946792 -0.30540648 4287527170
-0.53913802 -0.94253242 0.018953314 4287527170
-0.5894407 -1.0300549 -0.27399039 4287527170
-0.55468637 -0.96892899 0.058511604 4287527170
-0.60279047 -1.0529574 -0.23583993 4287527170
-0.55548304 -0.96992797 0.097788744 4287527170
-0.60688221 -1.0592473 -0.19335303 4287527170
-0.55279863 -0.96446002 0.13649367 4287527170
-0.59937674 -1.0453013 -0.1479494 4287527170
-0.56723756 -0.98845148 -0.099706165 4287527170
-0.52504325 -0.91455513 -0.055266771 4287527170
-0.54293907 -0.94496328 -0.019023122 4287527170
-0.4726916 -0.82236809 0.25416031 4287527170
-0.57999468 -1.0057964 -0.31110048 4287527170
-0.54442263 -0.94410932 0.019023122 4287527170
-0.58913732 -1.0212393 -0.27219078 4287527170
-0.5540719 -0.96006751 0.058092915 4287527170
-0.60468245 -1.0473406 -0.23507671 4287527170
-0.56501299 -0.97823739 0.098834611 4287527170
-0.61273706 -1.0604366 -0.19397876 4287527170
-0.56013453 -0.96939969 0.13746862 4287527170
-0.60898256 -1.0535144 -0.14941183 4287527170
-0.59063846 -1.0209572 -0.1031924 4287527170
-0.53239477 -0.9195385 -0.055685461 4287527170
-0.55024332 -0.94998378 -0.019162742 4287527170
-0.48137063 -0.83074212 0.25726613 4287527170
-0.58156037 -1.0004256 -0.31006524 4287527170
-0.55592185 -0.95593643 0.019302363 4287527170
-0.59483635 -1.022442 -0.2730906 4287527170
-0.55741954 -0.95812768 0.058092915 4287527170
-0.60043401 -1.0316492 -0.23202376 4287527170
-0.56842452 -0.97625893 0.098834611 4287527170
-0.61842322 -1.0617054 -0.1946045 4287527170
-0.56568247 -0.97077066 0.13795611 4287527170
-0.61383951 -1.0529901 -0.14965557 4287527170
-0.61126184 -1.0481479 -0.10615569 4287527170
-0.55573672 -0.95217359 -0.057778902 4287527170
-0.55355608 -0.94805723 -0.019162742 4287527170
-0.58016539 -0.99005556 -0.30747706 4287527170
-0.55908853 -0.95408779 0.019302363 4287527170
-0.59920925 -1.0221449 -0.2735405 4287527170
-0.56278145 -0.95962179 0.058302261 4287527170
-0.60204452 -1.0261604 -0.23126051 4287527170
-0.5718286 -0.97426897 0.098834611 4287527170
-0.62194061 -1.0596486 -0.1946045 4287527170
-0.5749293 -0.97916037 0.13941854 4287527170
-0.6092847 -1.0372556 -0.14770564 4287527170
-0.61087799 -1.0391375 -0.10545845 4287527170
-0.57205343 -0.97270614 -0.059139632 4287527170
-0.55483347 -0.94267255 -0.019092934 4287527170
-0.58148086 -0.98479909 -0.30644175 4287527170
-0.55733043 -0.94352162 0.019127838 4287527170
-0.60178214 -1.0183693 -0.2730906 4287527170
-0.57222611 -0.96796721 0.058930293 4287527170
-0.60344595 -1.0207782 -0.23049729 4287527170
-0.56694257 -0.95864779 0.097440116 4287527170
-0.61758894 -1.0438702 -0.19210154 4287527170
-0.5793547 -0.97885567 0.13966228 4287527170
-0.61290145 -1.0351226 -0.14770564 4287527170
-0.6031512 -1.0182495 -0.10354102 4287527170
-0.58053762 -0.97929388 -0.059662998 4287527170
-0.56628329 -0.9544884 -0.019372171 4287527170
-0.5809629 -0.97612309 -0.30437121 4287527170
-0.56062055 -0.94157046 0.019127838 4287527170
-0.60034698 -1.0078913 -0.27084109 4287527170
-0.57560152 -0.96596384 0.058930293 4287527170
-0.60499555 -1.0152924 -0.22973405 4287527170
-0.57844704 -0.97035408 0.098834611 4287527170
-0.61515844 -1.0315286 -0.19022433 4287527170
-0.57259762 -0.95977986 0.1372249 4287527170
-0.62058038 -1.0397953 -0.14868061 4287527170
-0.607723 -1.0178487 -0.10371533 4287527170
-0.58497721 -0.97897583 -0.059767671 4287527170
-0.57371676 -0.95937091 -0.019511791 4287527170
-0.58635432 -0.97740251 -0.30540648 4287527170
-0.56802005 -0.94646621 0.019267458 4287527170
-0.60185534 -1.002448 -0.26994127 4287527170
-0.57588476 -0.95881224 0.058616273 4287527170
-0.61055768 -1.0165404 -0.23049729 4287527170
-0.58183068 -0.96832895 0.098834611 4287527170
-0.62079066 -1.032761 -0.19085006 4287527170
-0.58412838 -0.97138488 0.1391748 4287527170
-0.61397332 -1.0206125 -0.14624323 4287527170
-0.61538166 -1.0225496 -0.10441258 4287527170
-0.5873602 -0.9752171 -0.059662998 4287527170
-0.58532053 -0.97106349 -0.019791029 4287527170
-0.59176171 -0.97865593 -0.30644175 4287527170
-0.57028526 -0.94276655 0.019232551 4287527170
-0.60736877 -1.0036756 -0.27084109 4287527170
-0.5792281 -0.95679617 0.058616273 4287527170
-0.60596848 -1.0009671 -0.22744434 4287527170
-0.58933574 -0.97310895 0.099531859 4287527170
-0.62643915 -1.0339668 -0.19147581 4287527170
-0.58854455 -0.97103757 0.13941854 4287527170
-0.61650294 -1.0167657 -0.14599949 4287527170
-0.61998063 -1.0220987 -0.10458689 4287527170
-0.59076083 -0.97316086 -0.059662998 4287527170
-0.58663005 -0.96559632 -0.019721219 4287527170
-0.59115279 -0.96998584 -0.30437121 4287527170
-0.57565445 -0.94418514 0.019302363 4287527170
-0.60680962 -0.9948945 -0.26904148 4287527170
-0.58880627 -0.96499813 0.059244309 4287527170
-0.60741371 -0.99549395 -0.2266811 4287527170
-0.58650035 -0.96084225 0.098485984 4287527170
-0.62901503 -1.0300878 -0.19116293 4287527170
-0.59917444 -0.98083532 0.14112473 4287527170
-0.62418902 -1.0213828 -0.14697444 4287527170
-0.61419147 -1.0046294 -0.10301808 4287527170
-0.59311181 -0.96938908 -0.059558321 4287527170
-0.59417403 -0.97036421 -0.019860838 4287527170
-0.58745712 -0.95639378 -0.30074775 4287527170
-0.58313477 -0.9489848 0.019441981 4287527170
-0.61027861 -0.99277037 -0.26904148 4287527170
-0.59844857 -0.97314471 0.05987234 4287527170
-0.61499864 -1.000057 -0.22820757 4287527170
-0.59611487 -0.96897084 0.099531859 4287527170
-0.62743014 -1.0194744 -0.18959859 4287527170
-0.62775052 -1.0191978 -0.14697444 4287527170
-0.61455905 -0.99739063 -0.10249515 4287527170
-0.59544373 -0.96561277 -0.059453651 4287527170
-0.60385889 -0.97849476 -0.020070268 4287527170
-0.59485948 -0.96090764 -0.3028183 4287527170
-0.58433777 -0.94354343 0.019372171 4287527170
-0.60758257 -0.98069441 -0.26634204 4287527170
-0.60605061 -0.97784036 0.06029103 4287527170
-0.62262285 -1.0045791 -0.22973405 4287527170
-0.60159326 -0.97027093 0.099880479 4287527170
-0.62890261 -1.0139207 -0.18897286 4287527170
-0.63549191 -1.0237467 -0.1479494 4287527170
-0.62224126 -1.0020096 -0.1031924 4287527170
-0.59037673 -0.94995755 -0.058616273 4287527170
-0.60304624 -0.96958864 -0.01993065 4287527170
-0.59821004 -0.95882529 -0.3028183 4287527170
-0.58974546 -0.94489074 0.019441981 4287527170
-0.60996985 -0.97691476 -0.26589215 4287527170
-0.60628569 -0.97063714 0.05997701 4287527170
-0.62612545 -1.0023998 -0.22973405 4287527170
-0.6113115 -0.97830272 0.10092635 4287527170
-0.63767314 -1.0200945 -0.1905372 4287527170
-0.63169205 -1.0097415 -0.14624323 4287527170
-0.62679219 -1.0015205 -0.10336671 4287527170
-0.59262902 -0.94619834 -0.058511604 4287527170
-0.60642713 -0.96747774 -0.01993065 4287527170
-0.60772312 -0.96654385 -0.30592412 4287527170
-0.60262251 -0.95806056 0.019756125 4287527170
-0.61337626 -0.97477955 -0.26589215 4287527170
-0.61179823 -0.97189546 0.060186356 4287527170
-0.62125361 -0.98691624 -0.2266811 4287527170
-0.61896926 -0.98290682 0.10162359 4287527170
-0.64228296 -1.0195336 -0.19085006 4287527170
-0.63627136 -1.0092098 -0.14648695 4287527170
-0.63347262 -1.0043821 -0.10388964 4287527170
-0.6044566 -0.95763564 -0.059348982 4287527170
-0.61193651 -0.96873617 -0.020000458 4287527170
-0.60695738 -0.95788932 -0.30385357 4287527170
-0.61988103 -0.97790766 0.020209888 4287527170
-0.62408048 -0.98415273 -0.26904148 4287527170
-0.61518705 -0.96975386 0.060186356 4287527170
-0.62469482 -0.98474157 -0.2266811 4287527170
-0.61599112 -0.9706468 0.10057773 4287527170
-0.64795548 -1.0206209 -0.19147581 4287527170
-0.64085507 -1.0086581 -0.14673071 4287527170
-0.62949353 -0.99039441 -0.10266946 4287527170
-0.61101174 -0.9605754 -0.059662998 4287527170
-0.61746174 -0.96996826 -0.020070268 4287527170
-0.61133695 -0.95739293 -0.30437121 4287527170
-0.61252576 -0.95888567 0.019860838 4287527170
-0.62646258 -0.98032618 -0.26859155 4287527170
-0.62502301 -0.97769725 0.060814388 4287527170
-0.6344732 -0.99247986 -0.22897081 4287527170
-0.62366933 -0.97520465 0.10127497 4287527170
-0.64619142 -1.010033 -0.18991147 4287527170
-0.65079421 -1.0164458 -0.14819314 4287527170
-0.64154375 -1.0016129 -0.10406395 4287527170
-0.6154387 -0.96011829 -0.059767671 4287527170
-0.62840217 -0.97958875 -0.0203146 4287527170
-0.61467516 -0.95525312 -0.30437121 4287527170
-0.61803395 -0.96010464 0.01993065 4287527170
-0.62988079 -0.97813338 -0.26859155 4287527170
-0.6338402 -0.98390466 0.061337747 4287527170
-0.64006025 -0.9935599 -0.22973405 4287527170
-0.63246614 -0.98139542 0.10214653 4287527170
-0.64864272 -1.0061109 -0.18959859 4287527170
-0.65756691 -1.0191718 -0.14892435 4287527170
-0.64827758 -1.0043894 -0.10458689 4287527170
-0.61553532 -0.95293099 -0.059453651 4287527170
-0.63181758 -0.9773894 -0.0203146 4287527170
-0.62431216 -0.96282727 -0.30747706 4287527170
-0.62464601 -0.96297449 0.020035362 4287527170
-0.63541293 -0.97919822 -0.26949137 4287527170
-0.62857091 -0.96828425 0.060500368 4287527170
-0.64566249 -0.99461305 -0.23049729 4287527170
-0.63805825 -0.9825235 0.10249515 4287527170
-0.65215081 -1.0038406 -0.18959859 4287527170
-0.65571034 -1.008549 -0.14770564 4287527170
-0.65829736 -1.0121415 -0.10563275 4287527170
-0.61558926 -0.94575483 -0.059139632 4287527170
-0.6384998 -0.98020464 -0.020419316 4287527170
-0.6367566 -0.97417885 0.0203146 4287527170
-0.63882709 -0.97697419 -0.26949137 4287527170
-0.64178675 -0.9811272 0.061442416 4287527170
-0.6448313 -0.98578143 -0.22897081 4287527170
-0.65239364 -0.99696189 0.10423827 4287527170
-0.66106057 -1.0098217 -0.19116293 4287527170
-0.66140264 -1.009575 -0.14819314 4287527170
-0.66728705 -1.0181694 -0.10650431 4287527170
-0.62217301 -0.94861054 -0.059453651 4287527170
-0.63533378 -0.96793956 -0.020209888 4287527170
-0.64455277 -0.97863048 0.02045422 4287527170
-0.6722542 -1.0203022 -0.28208864 4287527170
-0.64410877 -0.97721314 0.061337747 4287527170
-0.65042955 -0.98680276 -0.22973405 4287527170
-0.66784453 -1.0124547 -0.19210154 4287527170
-0.67585886 -1.0238268 -0.15063052 4287527170
-0.63098657 -0.95476425 -0.05997701 4287527170
-0.64312112 -0.97238731 -0.020349504 4287527170
-0.64243621 -0.96804374 0.020279696 4287527170
-0.6663003 -1.0032429 0.063117169 4287527170
-0.6932435 -1.0430202 -0.19835892 4287527170
-0.63542241 -0.95421821 -0.060081679 4287527170
-0.64872938 -0.97346467 -0.020419316 4287527170
-0.65248066 -0.97576904 0.020489125 4287527170
-0.6398623 -0.95365292 -0.060186356 4287527170
-0.66438562 -0.98945594 -0.020803269 4287527170
-0.66258693 -0.98343599 0.020698555 4287527170
-0.65101737 -0.96299601 -0.060919058 4287527170
-0.67567891 -0.99872476 -0.021047603 4287527170
-0.65887213 -0.96732068 -0.061337747 4287527170
0.65556556 0.66874075 -0.1820318 4288654880
0.6495055 0.65817887 -0.17974208 4288654880
0.65595084 0.66008526 -0.18088694 4288654880
0.65130723 0.65085286 -0.17897885 4288654880
0.65078825 0.64580947 -0.17821561 4288654880
0.68308586 0.6773876 -0.15236719 4288654880
0.65642577 0.647098 -0.21280369 4288654880
0.64744496 0.63802195 -0.17668915 4288654880
0.68122399 0.6708408 -0.15142858 4288654880
0.66692221 0.65309823 -0.21550311 4288654880
0.6621834 0.64823192 -0.1801237 4288654880
0.68344504 0.66857791 -0.15142858 4288654880
0.65511549 0.63729513 -0.21100408 4288654880
0.66010714 0.64192617 -0.17897885 4288654880
0.68990815 0.67043799 -0.15236719 4288654880
0.66434407 0.64177412 -0.2132536 4288654880
0.64680934 0.62461621 -0.17478105 4288654880
0.68513685 0.66116726 -0.15080284 4288654880
0.66444683 0.64075339 -0.1133385 4288654880
0.67273921 0.64852345 -0.081752084 4288654880
0.67361188 0.64619619 -0.21550311 4288654880
0.65890425 0.63186705 -0.17745239 4288654880
0.68458825 0.65603799 -0.15017711 4288654880
0.67528188 0.64666772 -0.11480093 4288654880
0.66780293 0.63928223 -0.08088053 4288654880
0.65811288 0.62956595 -0.047730397 4288654880
0.67434043 0.64261436 -0.2150532 4288654880
0.6625278 0.63091689 -0.17783399 4288654880
0.67817575 0.64559197 -0.14829989 4288654880
0.68173736 0.64852965 -0.11553215 4288654880
0.67147422 0.63832015 -0.081054844 4288654880
0.66454023 0.63150775 -0.048044413 4288654880
0.67091727 0.63489926 -0.2132536 4288654880
0.66889507 0.63276374 -0.17897885 4288654880
0.6675052 0.63100821 -0.14548407 4288654880
0.67678189 0.63932985 -0.11431345 4288654880
0.67213857 0.63472217 -0.08088053 4288654880
0.65947771 0.62233019 -0.047521055 4288654880
0.67881 0.63789117 -0.2150532 4288654880
0.68254673 0.64117897 -0.1820318 4288654880
0.67258441 0.63137811 -0.1461098 4288654880
0.67032266 0.62881494 -0.11285102 4288654880
0.67435026 0.6323719 -0.08088053 4288654880
0.6543591 0.61319607 -0.046997696 4288654880
0.64223528 0.60141349 -0.015358118 4288654880
0.68245715 0.6368475 -0.21550311 4288654880
0.66611803 0.62138295 -0.17707075 4288654880
0.67478406 0.62902659 -0.1461098 4288654880
0.66234618 0.61699957 -0.11114486 4288654880
0.67801154 0.63137209 -0.081054844 4288654880
0.66526848 0.61907154 -0.047625724 4288654880
0.64579457 0.60053015 -0.015393022 4288654880
0.68181741 0.6318121 -0.2146033 4288654880
0.66972345 0.62038797 -0.17745239 4288654880
0.66102999 0.61190629 -0.14266825 4288654880
0.65720958 0.60794401 -0.10992616 4288654880
0.67436016 0.62359053 -0.080357596 4288654880
0.66302466 0.6126793 -0.047311708 4288654880
0.65229452 0.60234195 -0.015497738 4288654880
0.67645162 0.62290156 -0.24639574 4288654880
0.6754148 0.62151074 -0.21190389 4288654880
0.67477459 0.62070477 -0.17821561 4288654880
0.648619 0.59622663 -0.13953955 4288654880
0.65640378 0.60296053 -0.10943868 4288654880
0.66479266 0.610452 -0.078963101 4288654880
0.66810232 0.61306202 -0.047521055 4288654880
0.65291911 0.59870994 -0.015462833 4288654880
0.69858146 0.63878739 -0.25364268 4288654880
0.67038709 0.61257678 -0.20965438 4288654880
0.66824007 0.61040097 -0.17592591 4288654880
0.64777827 0.5912956 -0.13891383 4288654880
0.65850461 0.60066545 -0.10943868 4288654880
0.65661377 0.59873074 -0.077742919 4288654880
0.65695173 0.5986191 -0.046579007 4288654880
0.65204799 0.59373432 -0.015393022 4288654880
0.68364424 0.62076122 -0.24743101 4288654880
0.64853776 0.58867747 0.015288308 4288654880
0.66530526 0.60368556 -0.20740487 4288654880
0.6718207 0.60938382 -0.17630751 4288654880
0.65715623 0.5956642 -0.14047816 4288654880
0.65765464 0.595698 -0.1089512 4288654880
0.66460717 0.60178441 -0.078440167 4288654880
0.65459424 0.59230226 -0.046264991 4288654880
0.65708327 0.59413683 -0.015462833 4288654880
0.68293762 0.61578351 -0.24639574 4288654880
0.65950102 0.5944429 0.015497738 4288654880
0.66740835 0.60135961 -0.20740487 4288654880
0.66081512 0.59520942 -0.17287296 4288654880
0.66069949 0.59468824 -0.14079103 4288654880
0.64644706 0.58145088 -0.10675755 4288654880
0.66818523 0.60079318 -0.078614481 4288654880
0.64625835 0.58066946 -0.045532286 4288654880
0.65320134 0.58649582 -0.015323212 4288654880
0.65917629 0.59020042 -0.23707826 4288654880
0.67200202 0.6014728 0.015742071 4288654880
0.67676497 0.60552311 -0.20965438 4288654880
0.66288865 0.59289926 -0.17287296 4288654880
0.6598258 0.5897454 -0.1401653 4288654880
0.65143371 0.58183575 -0.10724504 4288654880
0.65244401 0.58253342 -0.076522738 4288654880
0.65126181 0.58106947 -0.045741629 4288654880
0.64927417 0.57888913 -0.015183594 4288654880
0.6626761 0.58917964 -0.23759589 4288654880
0.65167755 0.57919669 0.015218498 4288654880
0.67887467 0.60315692 -0.20965438 4288654880
0.66495413 0.59058189 -0.17287296 4288654880
0.65301609 0.57957095 -0.13828808 4288654880
0.64603513 0.57297212 -0.10602634 4288654880
0.65149194 0.5776087 -0.076174118 4288654880
0.65627617 0.5814414 -0.045950972 4288654880
0.66027403 0.58457267 -0.015393022 4288654880
0.66762531 0.58941978 -0.23863117 4288654880
0.65519452 0.57824177 0.015253403 4288654880
0.67513055 0.59562671 -0.20785476 4288654880
0.6784603 0.59856433 0.047416382 4288654880
0.66406691 0.58565992 -0.17210972 4288654880
0.64021522 0.56422728 -0.13515939 4288654880
0.65696943 0.57858557 -0.10748877 4288654880
0.65350407 0.57533121 -0.076174118 4288654880
0.64030737 0.56331593 -0.044694912 4288654880
0.65470111 0.57577682 -0.015218498 4288654880
0.66241521 0.5807184 -0.23604298 4288654880
0.65410095 0.57342958 0.015183594 4288654880
0.6653772 0.58310974 -0.20425557 4288654880
0.67303413 0.58961177 0.046893019 4288654880
0.66906095 0.58592522 -0.17287296 4288654880
0.64059645 0.56080019 -0.13484652 4288654880
0.64693213 0.56594735 -0.10553886 4288654880
0.65700859 0.57435769 -0.076348431 4288654880
0.6346522 0.55461836 -0.044171553 4288654880
0.65670711 0.57348782 -0.015218498 4288654880
0.6628803 0.57725 -0.23552534 4288654880
0.65760708 0.57245559 0.015218498 4288654880
0.6674087 0.58078343 -0.20425557 4288654880
0.66755331 0.58070511 0.046369661 4288654880
0.66211277 0.57597232 -0.17058325 4288654880
0.64105934 0.55726445 -0.13453366 4288654880
0.63991183 0.55587494 -0.10407643 4288654880
0.65439641 0.56825691 -0.075825498 4288654880
0.64412665 0.55894476 -0.044694912 4288654880
0.64964032 0.56333137 -0.015009069 4288654880
0.66635275 0.57619601 -0.23604298 4288654880
0.65960145 0.57015646 0.015218498 4288654880
0.67532992 0.58354682 -0.20605516 4288654880
0.67259938 0.58098233 0.046579007 4288654880
0.64926207 0.56082392 -0.16676706 4288654880
0.63851452 0.55115122 -0.13359505 4288654880
0.64335161 0.55493426 -0.10432017 4288654880
0.6503402 0.56076503 -0.07512825 4288654880
0.64910007 0.55930018 -0.044904254 4288654880
0.63644886 0.54801285 -0.014660021 4288654880
0.6654287 0.57134938 -0.2350077 4288654880
0.64337838 0.55222213 0.014799641 4288654880
0.65369958 0.56088233 -0.19885674 4288654880
0.67613941 0.57993108 0.046683677 4288654880
0.65717673 0.56366658 -0.16829354 4288654880
0.63293546 0.54249132 -0.13203071 4288654880
0.65433049 0.56043351 -0.1057826 4288654880
0.65229386 0.55849135 -0.07512825 4288654880
0.64953047 0.55573308 -0.044799585 4288654880
0.64747745 0.55358469 -0.014869451 4288654880
0.65712833 0.56024975 -0.23138423 4288654880
0.65139002 0.55516118 0.014939261 4288654880
0.66455388 0.56617957 -0.20155615 4288654880
0.66599524 0.56720757 0.045846302 4288654880
0.65764552 0.56009638 -0.16791193 4288654880
0.70543069 0.60058117 0.081054844 4288654880
0.63181669 0.53771788 -0.13140497 4288654880
0.65174639 0.55428779 -0.10505138 4288654880
0.65423954 0.55621082 -0.07512825 4288654880
0.64233381 0.54570335 -0.044171553 4288654880
0.64940578 0.55132133 -0.014869451 4288654880
0.65465677 0.55420774 -0.22983132 4288654880
0.65637678 0.55546772 0.015009069 4288654880
0.65462357 0.55378801 -0.19795693 4288654880
0.66644621 0.56358951 0.045741629 4288654880
0.64760411 0.54765546 -0.16485898 4288654880
0.69078559 0.58396631 0.079137415 4288654880
0.64726853 0.54698479 -0.13422079 4288654880
0.64609408 0.54560536 -0.10383269 4288654880
0.65769917 0.5552094 -0.075302556 4288654880
0.6427083 0.54216993 -0.04406688 4288654880
0.66202897 0.55807287 -0.015113784 4288654880
0.67137522 0.56434989 -0.2350077 4288654880
0.65831184 0.55317301 0.015009069 4288654880
0.66998225 0.56278008 -0.20200606 4288654880
0.66993886 0.56254429 0.045846302 4288654880
0.64349771 0.54034173 -0.16333251 4288654880
0.69587207 0.58411312 0.079486035 4288654880
0.64614755 0.54218239 -0.13359505 4288654880
0.64495236 0.54079592 -0.10334522 4288654880
0.66116029 0.55418992 -0.07547687 4288654880
0.65072119 0.54505318 -0.044485565 4288654880
0.65477252 0.54805738 -0.014904355 4288654880
0.64219522 0.53600734 -0.22413731 4288654880
0.6617744 0.55215263 0.015043975 4288654880
0.64799803 0.54046708 -0.19480762 4288654880
0.66883028 0.55764443 0.045636959 4288654880
0.64537984 0.53809237 -0.16333251 4288654880
0.6780104 0.56509739 0.077219985 4288654880
0.64955384 0.54118818 -0.13390793 4288654880
0.65904069 0.54870236 -0.10529512 4288654880
0.65543371 0.545506 -0.074605316 4288654880
0.67310899 0.56001759 0.17020163 4288654880
0.64954883 0.54022402 -0.044276223 4288654880
0.6878069 0.57184035 0.20650508 4288654880
0.6474542 0.53809971 -0.014694927 4288654880
0.64703733 0.53622764 -0.22517258 4288654880
0.65291822 0.54090923 0.014799641 4288654880
0.65888608 0.54565936 -0.19750702 4288654880
0.6800037 0.56294805 0.046264991 4288654880
0.64120519 0.5308283 -0.16180603 4288654880
0.67997873 0.56272733 0.077219985 4288654880
0.64230675 0.53136247 -0.13203071 4288654880
0.65330207 0.54007459 -0.10407643 4288654880
0.65579814 0.54194546 -0.074431002 4288654880
0.67354602 0.55641431 0.16982001 4288654880
0.65143049 0.5379535 -0.044276223 4288654880
0.69280457 0.57191706 0.20740487 4288654880
0.65241307 0.53838199 -0.014764735 4288654880
0.64144635 0.5278284 -0.22258438 4288654880
0.65325791 0.53735662 0.014764735 4288654880
0.65476614 0.53840512 -0.19570743 4288654880
0.67723888 0.55688417 0.045950972 4288654880
0.63395435 0.52110702 -0.15951632 4288654880
0.67886025 0.55782038 0.076871365 4288654880
0.62584049 0.51407099 -0.12827627 4288654880
0.67810184 0.55680126 0.10773251 4288654880
0.63830513 0.52393657 -0.1013953 4288654880
0.6592263 0.54091668 -0.074605316 4288654880
0.67396617 0.5528149 0.16943841 4288654880
0.64867109 0.53187698 -0.043962207 4288654880
0.68273968 0.55961227 0.20380566 4288654880
0.65574157 0.5374831 -0.014799641 4288654880
0.70680535 0.57913226 0.24484283 4288654880
0.64627707 0.52803051 -0.22361965 4288654880
0.6503908 0.53139156 0.014660021 4288654880
0.64145446 0.52390414 -0.19120839 4288654880
0.67453724 0.55072749 0.045636959 4288654880
0.6433745 0.52509755 -0.16142441 4288654880
0.68697804 0.5604859 0.077568613 4288654880
0.63672495 0.51948577 -0.13015349 4288654880
0.66763794 0.54451227 0.1057826 4288654880
0.64619321 0.52683467 -0.10237025 4288654880
0.72427797 0.5902859 0.14798702 4288654880
0.66574425 0.54238766 -0.07512825 4288654880
0.66361922 0.54065639 0.16638546 4288654880
0.64578527 0.5259394 -0.043648191 4288654880
0.68912524 0.56103635 0.20515537 4288654880
0.65916461 0.53645319 -0.014834546 4288654880
0.69983137 0.56934637 0.24173699 4288654880
0.65102476 0.52831888 -0.22465494 4288654880
0.66621822 0.54045641 0.014974165 4288654880
0.64479309 0.52288914 -0.1916583 4288654880
0.67180115 0.54459625 0.045322943 4288654880
0.63291168 0.51307046 -0.15837148 4288654880
0.69347686 0.56196767 0.078091539 4288654880
0.64160442 0.51974672 -0.13077922 4288654880
0.69267541 0.5609172 0.10943868 4288654880
0.61716962 0.49959609 -0.097495481 4288654880
0.71097797 0.57532817 0.14485833 4288654880
0.63501406 0.51385766 -0.071467713 4288654880
0.68687195 0.55562246 0.1717281 4288654880
0.64295799 0.51991463 -0.043334179 4288654880
0.70017248 0.56597787 0.20785476 4288654880
0.65325648 0.52786475 -0.014660021 4288654880
0.67776966 0.54747719 0.23345479 4288654880
0.62578732 0.50422621 -0.21533746 4288654880
0.67121559 0.54063618 0.015043975 4288654880
0.63447148 0.51085782 -0.18805908 4288654880
0.67214179 0.54099607 0.04521827 4288654880
0.63163972 0.50839657 -0.15760824 4288654880
0.67680669 0.54455566 0.075999804 4288654880
0.6387971 0.51378959 -0.12984063 4288654880
0.69153458 0.55600864 0.1089512 4288654880
0.58177537 0.46759224 -0.091645755 4288654880
0.68834341 0.55304682 0.13985243 4288654880
0.62748492 0.50415033 -0.070421837 4288654880
0.67656147 0.54338694 0.16867517 4288654880
0.6432116 0.51641655 -0.043229505 4288654880
0.6808669 0.54645354 0.20155615 4288654880
0.65821421 0.52808446 -0.014729831 4288654880
0.65556377 0.52576947 0.22517258 4288654880
0.63056076 0.50445217 -0.21637273 4288654880
0.66841364 0.53454298 0.014939261 4288654880
0.62255162 0.49768856 -0.18400995 4288654880
0.67861241 0.54250544 0.045532286 4288654880
0.63034326 0.50373715 -0.156845 4288654880
0.68337351 0.54592025 0.076522738 4288654880
0.62206364 0.49676484 -0.12608619 4288654880
0.70277971 0.56102186 0.11041363 4288654880
0.62064266 0.49527496 -0.097495481 4288654880
0.6963498 0.55568951 0.14110391 4288654880
0.61989564 0.49450225 -0.069375969 4288654880
0.66924441 0.53367758 0.16638546 4288654880
0.66687524 0.53159738 -0.044694912 4288654880
0.70105857 0.55864704 0.20695497 4288654880
0.66465354 0.52963728 -0.014834546 4288654880
0.66032559 0.52600008 0.22620785 4288654880
0.63534313 0.50465131 -0.217408 4288654880
0.65922135 0.52361768 0.014694927 4288654880
0.61351532 0.48713896 -0.18086064 4288654880
0.69458145 0.55130833 0.046474334 4288654880
0.629022 0.49909306 -0.15608177 4288654880
0.6805917 0.53981769 0.075999804 4288654880
0.61906439 0.49101675 -0.12514758 4288654880
0.69219249 0.54882163 0.10846373 4288654880
0.6129474 0.48581606 -0.096033052 4288654880
0.68589842 0.54344195 0.13860095 4288654880
0.62161815 0.49233526 -0.069375969 4288654880
0.66485459 0.52657944 0.16485898 4288654880
0.63731652 0.50458771 -0.04260147 4288654880
0.6876266 0.54422545 0.20245595 4288654880
0.64454323 0.50994343 -0.014345878 4288654880
0.68640155 0.54286581 0.23449005 4288654880
0.61577928 0.4857904 -0.21016107 4288654880
0.66889608 0.52750456 0.014869451 4288654880
0.6152122 0.48499426 -0.18086064 4288654880
0.67444694 0.53169119 0.045008924 4288654880
0.63067323 0.49700484 -0.15608177 4288654880
0.69959414 0.5511198 0.077917233 4288654880
0.6238786 0.49129692 -0.12577333 4288654880
0.6738264 0.53044021 0.10529512 4288654880
0.60527933 0.47630802 -0.094570614 4288654880
0.68614459 0.53994268 0.13828808 4288654880
0.63264298 0.49766231 -0.070421837 4288654880
0.67286181 0.52910948 0.16638546 4288654880
0.63279313 0.49742296 -0.042182785 4288654880
0.70484495 0.55386215 0.20695497 4288654880
0.65723693 0.51645213 -0.014590211 4288654880
0.6821214 0.53581309 0.23241952 4288654880
0.61747134 0.48363781 -0.21016107 4288654880
0.67064154 0.52528369 0.014869451 4288654880
0.60300791 0.47213897 -0.17681152 4288654880
0.67944425 0.53179586 0.04521827 4288654880
0.62158084 0.4863317 -0.15341043 4288654880
0.70779139 0.5535841 0.078614481 4288654880
0.6177246 0.48314026 -0.12420898 4288654880
0.6896565 0.53920686 0.10748877 4288654880
0.60998356 0.47674316 -0.095058098 4288654880
0.67090255 0.52416635 0.13484652 4288654880
0.60768211 0.47460288 -0.067458548 4288654880
0.67461234 0.52687573 0.16638546 4288654880
0.63443899 0.49532193 -0.042182785 4288654880
0.68517029 0.53473616 0.20065634 4288654880
0.64011586 0.49939451 -0.014171354 4288654880
0.67484701 0.52630097 0.22931369 4288654880
0.6083982 0.47328413 -0.2065376 4288654880
0.67720687 0.526622 0.014974165 4288654880
0.61696047 0.47959968 -0.18041074 4288654880
0.690759 0.5367738 0.045846302 4288654880
0.61698937 0.47944903 -0.15188397 4288654880
0.7206372 0.55978984 0.079834662 4288654880
0.62876856 0.48825049 -0.12608619 4288654880
0.6852622 0.53192717 0.10651381 4288654880
0.60850745 0.47217697 -0.094570614 4288654880
0.68053222 0.52787501 0.13641086 4288654880
0.61720777 0.47858301 -0.068330102 4288654880
0.67024159 0.51970547 0.16485898 4288654880
0.63616431 0.49310413 -0.042182785 4288654880
0.67933041 0.52637339 0.19840683 4288654880
0.63553166 0.49225876 -0.014031734 4288654880
0.65835023 0.50974935 0.22310203 4288654880
0.62236184 0.48049581 -0.21067871 4288654880
0.67112666 0.51814479 0.014799641 4288654880
0.62480181 0.4822056 -0.18221036 4288654880
0.69737267 0.53801912 0.046160318 4288654880
0.62651557 0.48317939 -0.15379207 4288654880
0.71479434 0.55106252 0.078963101 4288654880
0.61490744 0.47388431 -0.1229575 4288654880
0.69497669 0.53559047 0.10773251 4288654880
0.58499098 0.45066664 -0.090670794 4288654880
0.67767537 0.52188063 0.13547227 4288654880
0.60624456 0.46670246 -0.066935606 4288654880
0.66591829 0.51245624 0.16333251 4288654880
0.63163501 0.48589814 -0.041764095 4288654880
0.68743449 0.52863151 0.20020644 4288654880
0.62139434 0.47784719 -0.013682687 4288654880
0.64480942 0.49567464 0.21792565 4288654880
0.60103661 0.46069178 -0.20291413 4288654880
0.6539734 0.50108695 0.014380784 4288654880
0.58324695 0.44673303 -0.16961309 4288654880
0.70885462 0.54274487 0.04678835 4288654880
0.62352204 0.47740874 -0.1526472 4288654880
0.71354949 0.54614204 0.078614481 4288654880
0.59773159 0.45733103 -0.11920308 4288654880
0.68274397 0.52218604 0.10553886 4288654880
0.59610081 0.45575354 -0.092133231 4288654880
0.67330587 0.51459509 0.13422079 4288654880
0.61111736 0.46689659 -0.067284234 4288654880
0.65834278 0.50297707 0.16104279 4288654880
0.63332742 0.48369023 -0.041764095 4288654880
0.67068827 0.51203841 0.19480762 4288654880
0.64539647 0.49255112 -0.014171354 4288654880
0.65890926 0.50268179 0.22206675 4288654880
0.59964585 0.45614666 -0.20187886 4288654880
0.69709897 0.53027862 0.015288308 4288654880
0.60651958 0.4612084 -0.17591172 4288654880
0.70756471 0.53785002 0.046579007 4288654880
0.61276221 0.46561795 -0.14959426 4288654880
0.72506571 0.55075407 0.079660349 4288654880
0.60569662 0.45991564 -0.12045455 4288654880
0.68140054 0.51739889 0.10505138 4288654880
0.6166622 0.46807232 -0.095058098 4288654880
0.68296617 0.51821196 0.13578513 4288654880
0.60956872 0.46235234 -0.066935606 4288654880
0.64140886 0.48632696 0.15646338 4288654880
0.63509589 0.48136583 -0.041764095 4288654880
0.68809313 0.52134514 0.19930664 4288654880
0.60248357 0.45648164 -0.01319402 4288654880
0.67605978 0.5120427 0.22724313 4288654880
0.62565303 0.47300598 -0.21016107 4288654880
0.67642647 0.51120663 0.014799641 4288654880
0.60485584 0.45695114 -0.17501192 4288654880
0.70128196 0.52960604 0.046055648 4288654880
0.61570781 0.46498072 -0.14997588 4288654880
0.73623741 0.55580312 0.080706216 4288654880
0.61494255 0.46406585 -0.1220189 4288654880
0.68777692 0.51884186 0.1057826 4288654880
0.61178982 0.46135199 -0.094083138 4288654880
0.67828137 0.5113073 0.13453366 4288654880
0.60139185 0.45334584 -0.065889739 4288654880
0.66793597 0.50332576 0.16256927 4288654880
0.61099654 0.46025217 -0.040089346 4288654880
0.67718297 0.50992346 0.19570743 4288654880
0.64864904 0.48825985 -0.014171354 4288654880
0.67303407 0.50643182 0.22569022 4288654880
0.6056692 0.45458412 -0.20291413 4288654880
0.70060062 0.52564359 0.015288308 4288654880
0.61580104 0.46185261 -0.17771132 4288654880
0.71271425 0.53434354 0.046683677 4288654880
0.60947305 0.45694044 -0.14806779 4288654880
0.73020154 0.54725522 0.079834662 4288654880
0.60549217 0.4536258 -0.11982881 4288654880
0.68322819 0.51167828 0.10480764 4288654880
0.58161443 0.43542004 -0.089208372 4288654880
0.68480659 0.51248735 0.13547227 4288654880
0.59339964 0.44408134 -0.064843871 4288654880
0.65711236 0.49158305 0.15951632 4288654880
0.63179326 0.47246999 -0.04134541 4288654880
0.69144529 0.51689106 0.19930664 4288654880
0.61190504 0.45726418 -0.013333639 4288654880
0.67170244 0.50176686 0.22465494 4288654880
0.61654717 0.45939255 -0.20601997 4288654880
0.70243132 0.52319467 0.015288308 4288654880
0.61115712 0.45504519 -0.17591172 4288654880
0.71777964 0.53423721 0.046893019 4288654880
0.63311321 0.4712207 -0.15341043 4288654880
0.71931958 0.53518832 0.078440167 4288654880
0.5975616 0.44443634 -0.11795159 4288654880
0.68978935 0.51284325 0.10553886 4288654880
0.59906346 0.44522819 -0.091645755 4288654880
0.68024856 0.50538182 0.13422079 4288654880
0.59502339 0.44190332 -0.064843871 4288654880
0.64463925 0.4787513 0.15608177 4288654880
0.63343877 0.47026157 -0.04134541 4288654880
0.68072617 0.50518376 0.19570743 4288654880
0.65204191 0.4837195 -0.014171354 4288654880
0.66413963 0.49251455 0.22154912 4288654880
0.6244399 0.46172407 -0.20809051 4288654880
0.67209548 0.49696159 0.014590211 4288654880
0.5939365 0.43900886 -0.1705129 4288654880
0.71482074 0.52816826 0.046579007 4288654880
0.62062317 0.4583995 -0.14997588 4288654880
0.72448188 0.53491533 0.078788787 4288654880
0.60713339 0.44810835 -0.11951595 4288654880
0.68518651 0.50571722 0.10456391 4288654880
0.59422427 0.4384203 -0.090670794 4288654880
0.6835984 0.50417656 0.13453366 4288654880
0.58373308 0.43036485 -0.063449383 4288654880
0.66377407 0.48919779 0.16027956 4288654880
0.59013414 0.43476668 -0.038414594 4288654880
0.67315871 0.49575126 0.19300801 4288654880
0.63118428 0.46483898 -0.013682687 4288654880
0.65963179 0.48561218 0.21947856 4288654880
0.61047465 0.44811004 -0.20291413 4288654880
0.67713684 0.4968611 0.014660021 4288654880
0.60811234 0.44604987 -0.17411213 4288654880
0.71675217 0.52554423 0.046579007 4288654880
0.6206364 0.45506927 -0.14959426 4288654880
0.74241418 0.54416168 0.080531903 4288654880
0.6007266 0.44014892 -0.11795159 4288654880
0.6854341 0.5020293 0.10432017 4288654880
0.5958271 0.43623951 -0.090670794 4288654880
0.67906541 0.49700114 0.13328218 4288654880
0.59809375 0.43773878 -0.064843871 4288654880
0.66706228 0.4880369 0.16066119 4288654880
0.61744219 0.45156837 -0.040089346 4288654880
0.68432373 0.50029963 0.19570743 4288654880
0.63288367 0.4625226 -0.013682687 4288654880
0.67076683 0.49002865 0.22258438 4288654880
0.60578954 0.44142598 -0.20084359 4288654880
0.69826335 0.50862259 0.015078879 4288654880
0.5876106 0.42786503 -0.16781349 4288654880
0.70727843 0.51481199 0.045846302 4288654880
0.62063348 0.45174515 -0.14921264 4288654880
0.7459203 0.54273891 0.080706216 4288654880
0.60545444 0.44037297 -0.11857734 4288654880
0.68397087 0.49729937 0.10383269 4288654880
0.59413475 0.43182269 -0.090183318 4288654880
0.68399251 0.49694973 0.13390793 4288654880
0.59639442 0.43330598 -0.064495243 4288654880
0.67352694 0.48916698 0.16180603 4288654880
0.61901456 0.44941047 -0.040089346 4288654880
0.68606609 0.49790764 0.19570743 4288654880
0.6787287 0.492221 0.22465494 4288654880
0.60106575 0.43477952 -0.19877303 4288654880
0.70003462 0.5061819 0.015078879 4288654880
0.60805279 0.43951041 -0.17321232 4288654880
0.71221918 0.51480359 0.046055648 4288654880
0.61106747 0.4415271 -0.14654131 4288654880
0.73488927 0.53079897 0.079311721 4288654880
0.61019099 0.4405697 -0.11920308 4288654880
0.70179909 0.50652623 0.10627007 4288654880
0.56022233 0.40419355 -0.084821068 4288654880
0.68083096 0.49121121 0.1329693 4288654880
0.57851177 0.41723609 -0.062403511 4288654880
0.69274831 0.49944234 0.16600384 4288654880
0.62057966 0.44724682 -0.040089346 4288654880
0.68147522 0.49095356 0.19390781 4288654880
0.63601708 0.45820427 -0.013682687 4288654880
0.66468072 0.47867817 0.21947856 4288654880
0.59002614 0.42366451 -0.19463193 4288654880
0.66272545 0.47586581 0.014241164 4288654880
0.60634053 0.43521905 -0.17231251 4288654880
0.71238923 0.51114976 0.045950972 4288654880
0.61100972 0.438247 -0.14615969 4288654880
0.73511803 0.52706999 0.079137415 4288654880
0.60522699 0.43393981 -0.11795159 4288654880
0.69056726 0.49494469 0.10432017 4288654880
0.58415091 0.4185195 -0.088233411 4288654880
0.67611724 0.48423141 0.13171785 4288654880
0.59940493 0.42913181 -0.064495243 4288654880
0.665667 0.47657079 0.15913472 4288654880
0.62205929 0.44518653 -0.040089346 4288654880
0.6815145 0.48755726 0.1934579 4288654880
0.66949081 0.47860184 0.22051384 4288654880
0.60715717 0.43292129 -0.1998083 4288654880
0.64809853 0.46194309 0.013892116 4288654880
0.58563691 0.4172684 -0.16601388 4288654880
0.71896011 0.51226163 0.046264991 4288654880
0.62045515 0.44191328 -0.14806779 4288654880
0.73361593 0.52231801 0.078788787 4288654880
0.59064436 0.42037016 -0.11482291 4288654880
0.68905586 0.49022943 0.10383269 4288654880
0.60502064 0.4302839 -0.091158278 4288654880
0.6970368 0.49572477 0.13547227 4288654880
0.58783382 0.41790637 -0.063100755 4288654880
0.66892684 0.47538131 0.15951632 4288654880
0.58127564 0.41293865 -0.037367877 4288654880
0.70068985 0.49758667 0.19840683 4288654880
0.63912123 0.45386443 -0.013682687 4288654880
0.67737556 0.48085195 0.22258438 4288654880
0.62600994 0.44307604 -0.20550233 4288654880
0.66594899 0.47134405 0.014241164 4288654880
0.58701748 0.41532388 -0.16601388 4288654880
0.70932925 0.50167614 0.045532286 4288654880
0.62359691 0.4408783 -0.14844941 4288654880
0.73706186 0.52090371 0.078963101 4288654880
0.60171425 0.42524949 -0.11670013 4288654880
0.68419218 0.48336062 0.10285773 4288654880
0.56104189 0.39621195 -0.084333591 4288654880
0.68908042 0.48645309 0.13359505 4288654880
0.60556763 0.42733967 -0.064843871 4288654880
0.66408306 0.46863309 0.15798986 4288654880
0.62507498 0.44094232 -0.040089346 4288654880
0.68163246 0.48066065 0.19255811 4288654880
0.64070177 0.4516305 -0.013682687 4288654880
0.68536651 0.48293567 0.22465494 4288654880
0.60218716 0.4232243 -0.19722012 4288654880
0.66759032 0.4690164 0.014241164 4288654880
0.60760057 0.42671219 -0.17141271 4288654880
0.71434551 0.50149196 0.045741629 4288654880
0.62987614 0.4421919 -0.14959426 4288654880
0.74693948 0.52417934 0.079834662 4288654880
0.60481203 0.42428112 -0.11701299 4288654880
0.69237655 0.48552814 0.10383269 4288654880
0.57867652 0.40564549 -0.086770974 4288654880
0.68268549 0.47837695 0.13203071 4288654880
0.61521506 0.43093845 -0.065715425 4288654880
0.67536294 0.47307011 0.16027956 4288654880
0.5938893 0.4158459 -0.037995908 4288654880
0.68330604 0.47827855 0.19255811 4288654880
0.56035149 0.39207107 -0.011937446 4288654880
0.6807158 0.47611153 0.22258438 4288654880
0.61324185 0.42764461 -0.20032595 4288654880
0.69218689 0.48269701 0.014729831 4288654880
0.58190924 0.40564385 -0.16376437 4288654880
0.71773052 0.50013709 0.045846302 4288654880
0.62021583 0.43202546 -0.14692293 4288654880
0.73414004 0.51119173 0.078265861 4288654880
0.61771214 0.42996091 -0.11920308 4288654880
0.69895506 0.48651034 0.10456391 4288654880
0.58008891 0.40362322 -0.086770974 4288654880
0.68921638 0.47937465 0.1329693 4288654880
0.58727038 0.40831551 -0.062577821 4288654880
0.67709225 0.47059175 0.16027956 4288654880
0.61509252 0.42734119 -0.039251972 4288654880
0.6946581 0.48244035 0.19525751 4288654880
0.64383912 0.44714653 -0.013682687 4288654880
0.66967815 0.46491903 0.21844329 4288654880
0.5988465 0.41450638 -0.19514956 4288654880
0.64790744 0.44829789 0.013752497 4288654880
0.596214 0.41237649 -0.16736358 4288654880
0.71947181 0.49762884 0.045846302 4288654880
0.62333506 0.43097425 -0.14730455 4288654880
0.73264205 0.50636017 0.077917233 4288654880
0.59483093 0.4109596 -0.11451004 4288654880
0.69910002 0.48281732 0.10432017 4288654880
0.60109538 0.41513267 -0.089695849 4288654880
0.69251102 0.47808835 0.13328218 4288654880
0.60017073 0.41418478 -0.063798003 4288654880
0.68034697 0.46934006 0.16066119 4288654880
0.5968498 0.41158551 -0.037995908 4288654880
0.69304544 0.47792169 0.19435771 4288654880
0.6649341 0.45819378 0.21637273 4288654880
0.60658604 0.41689521 -0.19722012 4288654880
0.64939034 0.44614702 0.013752497 4288654880
0.59597176 0.40929401 -0.16691369 4288654880
0.72441077 0.49750173 0.046055648 4288654880
0.6215238 0.42668232 -0.14654131 4288654880
0.74253094 0.50956476 0.078788787 4288654880
0.58804566 0.40339768 -0.1129457 4288654880
0.70397162 0.48274148 0.10480764 4288654880
0.58282298 0.39966503 -0.086770974 4288654880
0.70223939 0.48137346 0.13484652 4288654880
0.60647148 0.41557097 -0.064320937 4288654880
0.67380112 0.46153384 0.15875308 4288654880
0.59491563 0.40734708 -0.037786566 4288654880
0.70105839 0.48002452 0.19615732 4288654880
0.62376517 0.42694137 -0.01319402 4288654880
0.67442185 0.46144044 0.21896091 4288654880
0.60158247 0.41052553 -0.19514956 4288654880
0.65086615 0.44399121 0.013752497 4288654880
0.58122545 0.39633647 -0.16241467 4288654880
0.70963979 0.48372057 0.045008924 4288654880
0.62942415 0.42904219 -0.14806779 4288654880
0.74257004 0.50597793 0.078614481 4288654880
0.59591073 0.40589342 -0.11419717 4288654880
0.69736421 0.47481838 0.10358895 4288654880
0.57108593 0.38869309 -0.084821068 4288654880
0.70718175 0.48114175 0.13547227 4288654880
0.60462356 0.41121039 -0.063972317 4288654880
0.67208105 0.45708892 0.15798986 4288654880
0.57974589 0.39414325 -0.036739845 4288654880
0.69628251 0.47319317 0.19435771 4288654880
0.64840931 0.44049317 -0.013682687 4288654880
0.68561745 0.46559542 0.22206675 4288654880
0.61748016 0.41806567 -0.1998083 4288654880
0.75838774 0.51346731 0.015986405 4288654880
0.62940753 0.42598051 -0.17546181 4288654880
0.71132386 0.48124063 0.045008924 4288654880
0.63099235 0.42673248 -0.14806779 4288654880
0.7427693 0.50213647 0.078440167 4288654880
0.61703467 0.41697928 -0.11795159 4288654880
0.71217525 0.48127332 0.10553886 4288654880
0.58559883 0.39558667 -0.086770974 4288654880
0.69903451 0.47203723 0.13359505 4288654880
0.59779829 0.40352392 -0.063100755 4288654880
0.68839854 0.46450576 0.16142441 4288654880
0.59443331 0.40095013 -0.037577223 4288654880
0.67700714 0.45647544 0.18850899 4288654880
0.68403453 0.46104008 0.22103147 4288654880
0.62374628 0.41914001 -0.20136122 4288654880
0.67726618 0.45493278 0.014241164 4288654880
0.61963952 0.41606653 -0.17231251 4288654880
0.71631581 0.48098132 0.04521827 4288654880
0.62758791 0.42124471 -0.14692293 4288654880
0.74451721 0.49954113 0.078440167 4288654880
0.62832981 0.42142466 -0.11982881 4288654880
0.7122857 0.47755414 0.10529512 4288654880
0.58704472 0.39343786 -0.086770974 4288654880
0.70067769 0.46959478 0.13359505 4288654880
0.59258223 0.39699888 -0.062403511 4288654880
0.68838465 0.46100739 0.16104279 4288654880
0.61242586 0.40998384 -0.03862394 4288654880
0.71098769 0.47578517 0.19750702 4288654880
0.60161138 0.40259174 -0.012635542 4288654880
0.67761123 0.45327872 0.21844329 4288654880
0.6203838 0.41374463 -0.1998083 4288654880
0.67877114 0.45268419 0.014241164 4288654880
0.62263715 0.4150905 -0.17276241 4288654880
0.71799052 0.47847775 0.04521827 4288654880
0.63559008 0.42340535 -0.14844941 4288654880
0.73962313 0.49252179 0.077742919 4288654880
0.61657035 0.41057983 -0.11732586 4288654880
0.73039025 0.48618907 0.10773251 4288654880
0.6197468 0.41238293 -0.091402017 4288654880
0.70066798 0.46605191 0.13328218 4288654880
0.62382871 0.41478452 -0.065541118 4288654880
0.67029148 0.44567767 0.15646338 4288654880
0.62043566 0.41237274 -0.039042629 4288654880
0.71256143 0.47342494 0.19750702 4288654880
0.6130079 0.40712705 -0.012844971 4288654880
0.67918921 0.45091084 0.21844329 4288654880
0.62175232 0.41168523 -0.1998083 4288654880
0.68034732 0.4503119 0.014241164 4288654880
0.60945535 0.40323704 -0.1687133 4288654880
0.72298771 0.47817266 0.045427613 4288654880
0.63044047 0.41696337 -0.14692293 4288654880
0.74125242 0.49006623 0.077742919 4288654880
0.62788761 0.41496 -0.11920308 4288654880
0.72711372 0.48035449 0.10700129 4288654880
0.63277805 0.41787428 -0.093108192 4288654880
0.70723635 0.46686789 0.13422079 4288654880
0.60524744 0.39954197 -0.063449383 4288654880
0.68003601 0.44874221 0.15837148 4288654880
0.58519268 0.38600999 -0.036739845 4288654880
0.71258295 0.46986184 0.19705713 4288654880
0.63112134 0.4159902 -0.01319402 4288654880
0.68882507 0.45385149 0.22103147 4288654880
0.6264146 0.41163406 -0.20084359 4288654880
0.61085927 0.40110704 -0.1687133 4288654880
0.71463436 0.46907011 0.044799585 4288654880
0.62696844 0.41152814 -0.14577809 4288654880
0.74628991 0.48966229 0.078091539 4288654880
0.6177699 0.40518194 -0.11701299 4288654880
0.72546589 0.47563645 0.10651381 4288654880
0.60932833 0.39934123 -0.089452103 4288654880
0.71712339 0.46980903 0.13578513 4288654880
0.61830443 0.40506977 -0.064669557 4288654880
0.68159842 0.44636551 0.15837148 4288654880
0.58653647 0.38396508 -0.036739845 4288654880
0.71421862 0.46737176 0.19705713 4288654880
0.51208019 0.33496842 -0.010680873 4288654880
0.6871714 0.44932956 0.2199962 4288654880
0.64241105 0.41894254 -0.20550233 4288654880
0.76723343 0.50015348 0.015986405 4288654880
0.63348067 0.41280314 -0.17456202 4288654880
0.70789963 0.46112221 0.044276223 4288654880
0.61359572 0.39969316 -0.14234352 4288654880
0.75133395 0.48922843 0.078440167 4288654880
0.61752498 0.40194532 -0.11670013 4288654880
0.72712171 0.47310135 0.10651381 4288654880
0.61571068 0.40045887 -0.090183318 4288654880
0.7121346 0.4629958 0.13453366 4288654880
0.61971474 0.40290883 -0.064669557 4288654880
0.68479836 0.44505355 0.15875308 4288654880
0.60462165 0.39279628 -0.037786566 4288654880
0.69786793 0.45320064 0.1921082 4288654880
0.61723739 0.40068585 -0.012844971 4288654880
0.68873537 0.44692865 0.2199962 4288654880
0.63089496 0.40830046 -0.20136122 4288654880
0.68502551 0.44316286 0.014241164 4288654880
0.62019002 0.4010658 -0.1705129 4288654880
0.72292364 0.46732244 0.045113601 4288654880
0.61993361 0.40074617 -0.14348838 4288654880
0.74299681 0.48011458 0.077394299 4288654880
0.6189242 0.39978743 -0.11670013 4288654880
0.72543353 0.46840656 0.10602634 4288654880
0.60042644 0.38754201 -0.087745935 4288654880
0.72370559 0.46693301 0.13641086 4288654880
0.60772395 0.39210197 -0.063275069 4288654880
0.6962471 0.44904476 0.16104279 4288654880
0.61270368 0.39501205 -0.038205251 4288654880
0.7256543 0.46765238 0.19930664 4288654880
0.61863238 0.3985287 -0.012844971 4288654880
0.6902914 0.44452161 0.2199962 4288654880
0.62581426 0.40192005 -0.19929068 4288654880
0.66300946 0.42564473 0.013752497 4288654880
0.60846579 0.39047834 -0.16691369 4288654880
0.73631823 0.47234476 0.045846302 4288654880
0.62132877 0.39857957 -0.14348838 4288654880
0.74466813 0.47751829 0.077394299 4288654880
0.60035932 0.38483247 -0.1129457 4288654880
0.73542136 0.47122613 0.10724504 4288654880
0.60177541 0.3854439 -0.087745935 4288654880
0.73032176 0.46759951 0.13734947 4288654880
0.60237712 0.38568103 -0.062577821 4288654880
0.69781041 0.44661146 0.16104279 4288654880
0.6023019 0.38533652 -0.037472546 4288654880
0.72728223 0.46511668 0.19930664 4288654880
0.64360756 0.41144583 -0.013333639 4288654880
0.68858302 0.44002894 0.21896091 4288654880
0.63535911 0.40492427 -0.20187886 4288654880
0.62297487 0.39672628 -0.1705129 4288654880
0.73122305 0.46548164 0.045427613 4288654880
0.62934083 0.40062553 -0.14501485 4288654880
0.75473517 0.48026392 0.078265861 4288654880
0.59503192 0.37849379 -0.11169422 4288654880
0.72701079 0.46226549 0.1057826 4288654880
0.59809136 0.38014629 -0.08701472 4288654880
0.73361701 0.46610653 0.13766235 4288654880
0.59867477 0.38037047 -0.062054887 4288654880
0.69273603 0.43996295 0.15951632 4288654880
0.60027105 0.38109064 -0.037263203 4288654880
0.7173838 0.4552657 0.19615732 4288654880
0.61802238 0.39205769 -0.012775162 4288654880
0.69011492 0.43762252 0.21896091 4288654880
0.61880851 0.39134583 -0.19618484 4288654880
0.64906216 0.41032022 0.013403447 4288654880
0.60458744 0.3820568 -0.16511407 4288654880
0.71756697 0.45345193 0.044485565 4288654880
0.61247724 0.38689303 -0.14081705 4288654880
0.75977623 0.47975418 0.078614481 4288654880
0.5963496 0.37641427 -0.11169422 4288654880
0.72861981 0.45972511 0.1057826 4288654880
0.58088124 0.36650896 -0.084333591 4288654880
0.73850018 0.46577898 0.13828808 4288654880
0.5831449 0.36765271 -0.060311772 4288654880
0.69925028 0.44068259 0.16066119 4288654880
0.60666728 0.38218689 -0.037577223 4288654880
0.70569891 0.44457459 0.19255811 4288654880
0.61931902 0.39000621 -0.012775162 4288654880
0.68829256 0.43327343 0.21792565 4288654880
0.62991995 0.39545435 -0.19929068 4288654880
0.66735727 0.41879505 0.013752497 4288654880
0.58934301 0.36969408 -0.16061506 4288654880
