# .PCD v0.7 - Point Cloud Data file format
VERSION 0.7
FIELDS x y z intensity
SIZE 4 4 4 4
TYPE F F F F
COUNT 1 1 1 1
WIDTH 112
HEIGHT 1
VIEWPOINT 0 0 0 1 0 0 0
POINTS 112
DATA ascii
3.0457864 0.18527782 -0.71759987 100
3.0509095 0.19329315 -0.71451646 100
3.0560327 0.2013085 -0.71143299 100
3.0611558 0.20932384 -0.70834959 100
3.0662789 0.21733917 -0.70526612 100
3.0714021 0.22535452 -0.70218271 100
3.0765254 0.23336986 -0.69909924 100
3.0816486 0.24138519 -0.69601583 100
3.0867717 0.24940054 -0.69293243 100
3.0918949 0.25741586 -0.68984896 100
3.097018 0.26543123 -0.68676555 100
3.1021411 0.27344656 -0.68368208 100
3.1072643 0.28146189 -0.68059868 100
3.1123874 0.28947723 -0.67751527 100
3.1175106 0.29749256 -0.6744318 100
3.1226337 0.30550793 -0.67134839 100
3.1277568 0.31352326 -0.66826493 100
3.1328802 0.3215386 -0.66518152 100
3.1380033 0.32955396 -0.66209805 100
3.1431265 0.3375693 -0.65901464 100
3.1482496 0.34558463 -0.65593117 100
3.1533728 0.3536 -0.65284777 100
3.1584959 0.36161533 -0.64976436 100
3.163619 0.36963066 -0.64668089 100
3.1687422 0.37764603 -0.64359748 100
3.1738653 0.38566136 -0.64051402 100
3.1789885 0.3936767 -0.63743061 100
3.1841116 0.40169203 -0.63434714 100
3.189235 0.40970737 -0.63126373 100
3.1943581 0.4177227 -0.62818033 100
3.1994812 0.42573801 -0.62509686 100
3.2046044 0.43375334 -0.62201345 100
3.2097275 0.44176868 -0.61893004 100
2.9156127 0.78392595 -0.71212453 100
2.9231894 0.77798462 -0.7094236 100
2.9307661 0.77204329 -0.70672268 100
2.9383426 0.76610202 -0.70402175 100
2.9459193 0.76016068 -0.70132083 100
2.953496 0.75421935 -0.6986199 100
2.9610727 0.74827802 -0.69591898 100
2.9686494 0.74233669 -0.69321805 100
2.9762259 0.73639542 -0.69051707 100
2.9838026 0.73045409 -0.68781614 100
2.9913793 0.72451276 -0.68511522 100
2.998956 0.71857142 -0.68241429 100
3.0065327 0.71263015 -0.67971337 100
3.0141091 0.70668882 -0.67701244 100
3.0216858 0.70074749 -0.67431152 100
3.0292625 0.69480616 -0.67161059 100
3.0368392 0.68886483 -0.66890967 100
3.044416 0.6829235 -0.66620874 100
3.0519924 0.67698216 -0.66350782 100
3.0595691 0.67104089 -0.66080689 100
3.0671458 0.66509956 -0.65810591 100
3.0747225 0.65915823 -0.65540498 100
3.0822992 0.6532169 -0.65270406 100
3.0898759 0.64727557 -0.65000314 100
3.0974524 0.64133424 -0.64730221 100
3.1050291 0.63539296 -0.64460129 100
3.1126058 0.62945163 -0.64190036 100
3.1201825 0.6235103 -0.63919944 100
3.127759 0.61756897 -0.63649851 100
3.1353357 0.6116277 -0.63379759 100
3.1429124 0.60568637 -0.63109666 100
3.1504891 0.59974504 -0.62839574 100
3.1580658 0.59380376 -0.62569481 100
3.1656423 0.58786243 -0.62299389 100
3.173219 0.5819211 -0.62029296 100
3.1807957 0.57597983 -0.61759204 100
3.2157731 0.50425977 -0.50175846 100
3.2123575 0.50328732 -0.49445605 100
3.2089419 0.50231481 -0.48715365 100
3.2055264 0.50134236 -0.47985125 100
3.2021108 0.50036991 -0.47254884 100
3.1986952 0.49939743 -0.46524644 100
3.1952796 0.49842495 -0.45794404 100
3.191864 0.4974525 -0.45064163 100
3.1884484 0.49648002 -0.44333923 100
3.1850326 0.49550757 -0.43603683 100
3.181617 0.49453509 -0.42873442 100
3.1782014 0.49356264 -0.42143202 100
3.1747859 0.49259016 -0.41412961 100
3.1713703 0.49161768 -0.40682721 100
3.1679547 0.49064523 -0.39952481 100
3.1645391 0.48967275 -0.3922224 100
3.1611235 0.4887003 -0.38492 100
3.1577079 0.48772782 -0.37761757 100
3.1542923 0.48675537 -0.37031516 100
3.1508768 0.48578289 -0.36301276 100
3.1474612 0.48481041 -0.35571036 100
3.1440456 0.48383796 -0.34840795 100
3.14063 0.48286548 -0.34110555 100
3.1372144 0.48189303 -0.33380315 100
3.1337988 0.48092055 -0.32650074 100
3.1303833 0.4799481 -0.31919831 100
3.1269677 0.47897562 -0.31189594 100
3.1235521 0.47800314 -0.30459353 100
3.1201365 0.47703069 -0.29729113 100
3.1167209 0.47605821 -0.28998873 100
3.1133053 0.47508577 -0.28268635 100
3.1098897 0.47411329 -0.27538395 100
3.1064742 0.47314084 -0.26808155 100
3.1030586 0.47216836 -0.26077914 100
3.099643 0.47119591 -0.25347677 100
3.0962274 0.47022343 -0.24617437 100
3.0928118 0.46925098 -0.23887196 100
3.0893962 0.4682785 -0.23156957 100
3.0859807 0.46730605 -0.22426717 100
3.0825651 0.46633357 -0.21696478 100
3.0791492 0.46536112 -0.20966238 100
3.0757337 0.46438864 -0.20235997 100
3.0723181 0.46341619 -0.19505759 100
