# .PCD v0.7 - Point Cloud Data file format
VERSION 0.7
FIELDS x y z rgb
SIZE 4 4 4 4
TYPE F F F U
COUNT 1 1 1 1
WIDTH 387
HEIGHT 1
VIEWPOINT 0 0 0 1 0 0 0
POINTS 387
DATA ascii
2.9242389 0.77207124 -0.69824809 4283595329
2.8040783 0.73093086 -0.77645719 4283595329
2.9344599 0.76382184 -0.70004767 4283595329
2.8047416 0.72065681 -0.77593952 4283595329
2.9389951 0.75406027 -0.70049757 4283595329
2.8127341 0.71277624 -0.77749246 4283595329
2.9490366 0.74622148 -0.70229721 4283595329
2.8019629 0.70016587 -0.77386898 4283595329
2.949604 0.7359668 -0.70184726 4283595329
2.8062651 0.6908446 -0.77438658 4283595329
2.8086598 0.68104392 -0.77438658 4283595329
2.9622464 0.71719104 -0.7036469 4283595329
2.8128991 0.67168373 -0.77490425 4283595329
2.9590452 0.70548981 -0.70229721 4283595329
2.817107 0.66230345 -0.77542186 4283595329
2.9671812 0.69649315 -0.7036469 4283595329
2.8118732 0.65072286 -0.77335137 4283595329
2.9809866 0.6887629 -0.70634627 4283595329
2.8103602 0.6400463 -0.7723161 4283595329
2.8163476 0.63107646 -0.77335137 4283595329
2.9667048 0.66368192 -0.70184726 4283595329
2.8298528 0.62373728 -0.77645719 4283595329
2.9690037 0.65332144 -0.70184726 4283595329
2.8320127 0.61385608 -0.77645719 4283595329
2.971154 0.64347142 -0.70184726 4283595329
2.8226967 0.60204273 -0.77335137 4283595329
2.9848177 0.63553333 -0.70454669 4283595329
2.8209996 0.59139252 -0.7723161 4283595329
2.9832034 0.62431133 -0.7036469 4283595329
2.8192625 0.58076423 -0.77128083 4283595329
2.9739118 0.61153829 -0.70094746 4283595329
2.8402073 0.57475048 -0.77645719 4283595329
2.9683874 0.59961087 -0.69914788 4283595329
2.8346167 0.56332719 -0.77438658 4283595329
2.9800198 0.59114075 -0.70139736 4283595329
2.8213973 0.55046886 -0.77024549 4283595329
2.983978 0.58110809 -0.70184726 4283595329
2.8270967 0.54134291 -0.77128083 4283595329
2.9955587 0.57251823 -0.70409679 4283595329
3.1394606 0.59945166 -0.62127411 4283595329
2.8327661 0.53218514 -0.7723161 4283595329
2.9803009 0.55882525 -0.70004767 4283595329
3.1550417 0.59102035 -0.62394547 4283595329
2.8422058 0.52369452 -0.77438658 4283595329
2.9822333 0.5484193 -0.70004767 4283595329
3.1725333 0.58284068 -0.62699842 4283595329
2.8383131 0.51274049 -0.7728337 4283595329
2.9801998 0.53783381 -0.69914788 4283595329
3.1745481 0.57176512 -0.62699842 4283595329
2.8342915 0.50231338 -0.77128083 4283595329
2.995492 0.52980268 -0.70229721 4283595329
3.1744933 0.56089228 -0.62661678 4283595329
2.8379309 0.49274647 -0.77179843 4283595329
2.9992428 0.51967794 -0.70274711 4283595329
3.1841698 0.55114627 -0.62814325 4283595329
2.8415384 0.48316035 -0.7723161 4283595329
2.9895113 0.50724876 -0.70004767 4283595329
2.8508298 0.47450927 -0.77438658 4283595329
2.9874187 0.49617094 -0.69914788 4283595329
3.1840663 0.52826208 -0.62738001 4283595329
2.8562822 0.46517542 -0.77542186 4283595329
2.9891324 0.48574051 -0.69914788 4283595329
3.1781394 0.51588523 -0.62585354 4283595329
2.8407185 0.4524681 -0.77076316 4283595329
3.0023577 0.47713789 -0.70184726 4283595329
3.1799209 0.50478899 -0.62585354 4283595329
2.8384631 0.44195417 -0.76972789 4283595329
3.0040047 0.4666554 -0.70184726 4283595329
3.1894238 0.4948892 -0.62738001 4283595329
2.8571773 0.43465754 -0.77438658 4283595329
3.0017619 0.45558244 -0.70094746 4283595329
3.1950138 0.48434064 -0.62814325 4283595329
2.8586771 0.42468208 -0.77438658 4283595329
3.0014062 0.4448151 -0.70049757 4283595329
3.1966851 0.47318569 -0.62814325 4283595329
2.8582304 0.41442427 -0.77386898 4283595329
3.0047934 0.43513951 -0.70094746 4283595329
3.1866589 0.46034086 -0.62585354 4283595329
2.8538506 0.40413037 -0.7723161 4283595329
3.0178716 0.42628276 -0.7036469 4283595329
3.180392 0.44867307 -0.62432706 4283595329
2.8552439 0.39416671 -0.7723161 4283595329
3.0232024 0.41627806 -0.70454669 4283595329
3.1916633 0.43890667 -0.62623513 4283595329
2.8604317 0.38471183 -0.77335137 4283595329
3.0130482 0.40416875 -0.70184726 4283595329
3.2087429 0.42984754 -0.62928808 4283595329
2.8655877 0.37522835 -0.77438658 4283595329
3.0163729 0.39390031 -0.70229721 4283595329
3.2063305 0.4181357 -0.62852484 4283595329
2.8783786 0.36668739 -0.77749246 4283595329
3.0177298 0.38336945 -0.70229721 4283595329
3.1863463 0.40422529 -0.62432706 4283595329
2.862386 0.35449994 -0.7728337 4283595329
3.0364559 0.37498203 -0.70634627 4283595329
2.8655241 0.34473756 -0.77335137 4283595329
3.0319417 0.36368346 -0.70499659 4283595329
2.8743851 0.33562833 -0.77542186 4283595329
3.0293212 0.35264921 -0.70409679 4283595329
2.8832178 0.32646286 -0.77749246 4283595329
3.0324705 0.34229052 -0.70454669 4283595329
2.8843396 0.31639716 -0.77749246 4283595329
3.0375211 0.33212742 -0.70544648 4283595329
2.8777423 0.30551043 -0.77542186 4283595329
3.0522273 0.32295701 -0.70859581 4283595329
2.8825831 0.29636016 -0.77645719 4283595329
3.0474656 0.31223843 -0.70724607 4283595329
2.8835499 0.28680015 -0.77645719 4283595329
3.044606 0.30174571 -0.70634627 4283595329
2.8961201 0.27733365 -0.77956301 4283595329
3.0456913 0.29058534 -0.70634627 4283595329
2.8932698 0.26636341 -0.77852774 4283595329
3.0583794 0.28048888 -0.70904571 4283595329
2.894182 0.25626162 -0.77852774 4283595329
3.0651166 0.27085918 -0.71039546 4283595329
2.8873162 0.24600732 -0.77645719 4283595329
2.9016356 0.23702882 -0.78008062 4283595329
2.8985934 0.22659688 -0.7790454 4283595329
3.0677848 0.23874754 -0.71039546 4283595329
2.9032195 0.21676721 -0.78008062 4283595329
3.060786 0.22799321 -0.70859581 4283595329
2.8962145 0.20658796 -0.77801007 4283595329
3.0440688 0.21606511 -0.70454669 4283595329
2.9007728 0.19673771 -0.7790454 4283595329
3.060323 0.20702226 -0.70814592 4283595329
2.911114 0.18672346 -0.78163356 4283595329
3.0494268 0.19452485 -0.70544648 4283595329
2.9078913 0.17632601 -0.78059822 4283595329
2.9219899 0.16694647 -0.78422177 4283595329
2.9109805 0.15612426 -0.78111589 4283595329
2.907649 0.14576925 -0.78008062 4283595329
2.9197187 0.13615935 -0.7831865 4283595329
2.9259663 0.12621577 -0.78473938 4283595329
2.9263685 0.11651142 -0.78473938 4283595329
2.9190166 0.10652536 -0.78266883 4283595329
2.9174399 0.096272342 -0.78215116 4283595329
3.2309499 0.5117318 -0.51811105 4294731451
3.1114442 0.49113423 -0.27558646 4294731451
3.209291 0.4968248 -0.51435655 4294731451
3.1644325 0.48874938 -0.39315054 4294731451
3.1210155 0.48148596 -0.27628368 4294731451
3.0537996 0.47002521 -0.16192746 4294731451
3.1992865 0.48384762 -0.51247936 4294731451
3.1621933 0.47710884 -0.39266306 4294731451
3.0950954 0.46643272 -0.27384335 4294731451
3.2048645 0.47325337 -0.51310509 4294731451
3.1442006 0.46317399 -0.39022568 4294731451
3.100647 0.45620522 -0.27419198 4294731451
3.0332937 0.44521368 -0.1606714 4294731451
3.1946852 0.46093118 -0.51122791 4294731451
3.1201761 0.44906923 -0.38705707 4294731451
3.082499 0.44254842 -0.27244884 4294731451
3.026845 0.43401912 -0.16025271 4294731451
3.1904066 0.44895017 -0.51028925 4294731451
3.1138613 0.43707198 -0.38608211 4294731451
3.0780303 0.43149337 -0.2719259 4294731451
3.0224075 0.42262173 -0.15993871 4294731451
3.1704266 0.4348588 -0.50684774 4294731451
3.1075013 0.42512286 -0.38510716 4294731451
3.0656998 0.41885769 -0.27070573 4294731451
3.0218856 0.41179848 -0.15983403 4294731451
3.1523454 0.42117393 -0.50371903 4294731451
3.0592427 0.40710464 -0.27000847 4294731451
3.0054855 0.39888194 -0.15889199 4294731451
3.144002 0.40889299 -0.50215465 4294731451
3.0507658 0.39514297 -0.26913694 4294731451
2.9870512 0.38583046 -0.15784526 4294731451
3.1454101 0.39791656 -0.50215465 4294731451
3.092088 0.39007291 -0.38266978 4294731451
3.042243 0.3832455 -0.26826537 4294731451
2.9824352 0.37465376 -0.15753125 4294731451
3.1682529 0.39069673 -0.62051088 4294731451
3.1330557 0.38524619 -0.49996459 4294731451
3.0316966 0.37117165 -0.26721951 4294731451
2.9817417 0.36400086 -0.15742657 4294731451
3.1656988 0.37916881 -0.61974764 4294731451
3.1128058 0.37173006 -0.49652308 4294731451
3.0730529 0.36589634 -0.37998864 4294731451
3.009232 0.35776338 -0.26512775 4294731451
2.9750609 0.35264921 -0.15700789 4294731451
3.1592028 0.36720866 -0.61822122 4294731451
3.0924995 0.35836291 -0.49308151 4294731451
3.0124416 0.34748742 -0.26530206 4294731451
2.9544477 0.33975148 -0.15585649 4294731451
3.1487598 0.35485867 -0.61593145 4294731451
3.0898056 0.34712401 -0.49245578 4294731451
3.0518591 0.3417823 -0.37706378 4294731451
3.0096762 0.33652633 -0.26495346 4294731451
2.941721 0.32788834 -0.1551238 4294731451
3.1226559 0.34088469 -0.61058879 4294731451
3.0909982 0.33633709 -0.49245578 4294731451
3.0411925 0.32984218 -0.37560135 4294731451
2.9949861 0.32430184 -0.26355895 4294731451
3.1121125 0.32874429 -0.60829914 4294731451
3.0764372 0.32389003 -0.4899528 4294731451
3.0225272 0.31768098 -0.37316394 4294731451
2.9802475 0.3121855 -0.26216447 4294731451
3.1131856 0.31842148 -0.60829914 4294731451
3.0539122 0.31128183 -0.48619837 4294731451
3.0196145 0.30725345 -0.37267649 4294731451
2.969373 0.30109411 -0.26111859 4294731451
3.1025555 0.30639547 -0.60600942 4294731451
3.0411668 0.29979706 -0.48400828 4294731451
3.0127664 0.29593557 -0.37170154 4294731451
2.9684229 0.29053378 -0.26094431 4294731451
3.0919309 0.29390648 -0.60371965 4294731451
3.0343788 0.28790295 -0.48275682 4294731451
2.9940679 0.28302234 -0.36926416 4294731451
2.9615335 0.27890402 -0.26024702 4294731451
3.0733871 0.2813229 -0.59990352 4294731451
3.0314791 0.27642137 -0.48213109 4294731451
2.9832234 0.27096987 -0.3678017 4294731451
2.9446306 0.26694632 -0.25867823 4294731451
3.0626166 0.26955947 -0.59761381 4294731451
3.024508 0.26567483 -0.4808796 4294731451
2.9841056 0.26107484 -0.3678017 4294731451
2.9376051 0.2559748 -0.25798097 4294731451
3.059581 0.25907129 -0.59685057 4294731451
3.005733 0.25345507 -0.47775093 4294731451
2.9751079 0.24982828 -0.36658302 4294731451
2.9205689 0.24473378 -0.25641218 4294731451
3.0487258 0.24743754 -0.59456086 4294731451
3.0006926 0.24248345 -0.4768123 4294731451
2.9174335 0.23421797 -0.25606358 4294731451
3.0417416 0.23618524 -0.59303439 4294731451
2.9897039 0.23109625 -0.47493511 4294731451
2.9569871 0.22752766 -0.36414564 4294731451
2.9182332 0.22403479 -0.25606358 4294731451
3.0190527 0.22382495 -0.58845496 4294731451
2.984544 0.22074281 -0.47399649 4294731451
2.9438674 0.21670118 -0.36243945 4294731451
3.0158615 0.21353546 -0.58769172 4294731451
2.9813552 0.21004501 -0.47337076 4294731451
2.9386652 0.206008 -0.36170825 4294731451
3.0048356 0.20221509 -0.58540201 4294731451
2.9583838 0.19857042 -0.46961632 4294731451
3.0016379 0.19095185 -0.58463877 4294731451
2.9492674 0.18658526 -0.46805197 4294731451
3.0306351 0.18270712 -0.70094746 4294731451
2.9944477 0.18000102 -0.58311236 4294731451
2.9400413 0.17570068 -0.46648762 4294731451
2.9089863 0.17282581 -0.35780841 4294731451
3.0273631 0.1719068 -0.70004767 4294731451
2.9754565 0.16843836 -0.57929617 4294731451
2.9327478 0.16499373 -0.46523616 4294731451
2.901644 0.16222787 -0.35683349 4294731451
3.0221066 0.16102785 -0.69869798 4294731451
2.9681845 0.1576338 -0.57776964 4294731451
2.927388 0.15444393 -0.46429756 4294731451
2.8962452 0.15178581 -0.35610226 4294731451
3.0226505 0.15047693 -0.69869798 4294731451
2.9647949 0.14707801 -0.57700646 4294731451
2.9140985 0.14354342 -0.46210748 4294731451
2.9978507 0.13875291 -0.69284928 4294731451
2.9535232 0.13618611 -0.57471669 4294731451
2.8987951 0.13264729 -0.45960453 4294731451
2.9905288 0.12795502 -0.69104964 4294731451
2.9461346 0.12554044 -0.57319027 4294731451
2.8992405 0.1225284 -0.45960453 4294731451
2.9792535 0.11757689 -0.68835026 4294731451
2.9269173 0.11499843 -0.56937408 4294731451
2.8956833 0.11276035 -0.4589788 4294731451
2.9776795 0.10762545 -0.6879003 4294731451
2.9194345 0.10501009 -0.56784761 4294731451
2.8999894 0.10329714 -0.45960453 4294731451
2.9644032 0.096784845 -0.68475103 4294731451
2.915859 0.094691895 -0.56708437 4294731451
2.9471917 0.085927457 -0.68070191 4294731451
2.9122469 0.084398545 -0.56632113 4294731451
2.9416294 0.075488552 -0.67935222 4294731451
2.9340818 0.065047741 -0.67755258 4294731451
2.8513706 0.81654084 -0.68475103 4289806260
2.8634384 0.80973285 -0.68700051 4289806260
2.8662477 0.79973179 -0.68700051 4289806260
2.8177648 0.78567427 -0.56861085 4289806260
2.8784161 0.79230839 -0.68925005 4289806260
2.8356338 0.77999836 -0.57166374 4289806260
2.8905675 0.78480828 -0.69149953 4289806260
2.8383389 0.77009594 -0.57166374 4289806260
2.9158785 0.78076267 -0.69689834 4289806260
2.8410096 0.76018429 -0.57166374 4289806260
2.814925 0.75215191 -0.46148172 4289806260
2.866426 0.75627208 -0.57624322 4289806260
2.8175337 0.74232066 -0.46148172 4289806260
2.8804481 0.74922758 -0.57853287 4289806260
2.8354032 0.73645306 -0.46398467 4289806260
2.8944569 0.74209315 -0.58082259 4289806260
2.8513522 0.72998267 -0.46617478 4289806260
2.900708 0.73345381 -0.58158582 4289806260
2.8518419 0.72003883 -0.46586189 4289806260
2.8063264 0.70802599 -0.35537103 4289806260
2.9145546 0.72667962 -0.58387554 4289806260
2.8542137 0.71057838 -0.46586189 4289806260
2.8145599 0.69966304 -0.35610226 4289806260
2.9805415 0.73264301 -0.70859581 4289806260
2.9285123 0.71931189 -0.58616525 4289806260
2.8662694 0.70296282 -0.46742624 4289806260
2.8324103 0.69361073 -0.35805216 4289806260
2.938638 0.71093225 -0.58769172 4289806260
2.8783064 0.69527316 -0.46899059 4289806260
2.8386738 0.68464965 -0.35853964 4289806260
2.9602001 0.70521921 -0.59150791 4289806260
2.8960903 0.68887794 -0.47149354 4289806260
2.8429778 0.67519599 -0.35878339 4289806260
2.9626436 0.69488251 -0.59150791 4289806260
2.9119408 0.68191659 -0.47368363 4289806260
2.8607805 0.6688841 -0.36073327 4289806260
2.972703 0.68630248 -0.59303439 4289806260
2.9258525 0.67441058 -0.47556084 4289806260
2.8689015 0.66023028 -0.3614645 4289806260
2.9942253 0.68027186 -0.59685057 4289806260
2.9397473 0.66681582 -0.47743803 4289806260
2.8944216 0.65547246 -0.36438939 4289806260
3.0080776 0.67238474 -0.59914029 4289806260
2.9478409 0.65784144 -0.47837666 4289806260
2.9044425 0.64709103 -0.36536431 4289806260
2.8510544 0.63467568 -0.25554064 4289806260
3.0295804 0.66609687 -0.60295647 4289806260
2.9674845 0.65135837 -0.48119247 4289806260
2.9066834 0.6369493 -0.36536431 4289806260
3.0318871 0.65551823 -0.60295647 4289806260
2.9870059 0.64526743 -0.48400828 4289806260
2.9243033 0.63065541 -0.36731425 4289806260
2.872946 0.61852878 -0.25710943 4289806260
3.051327 0.64913642 -0.60639101 4289806260
3.0085623 0.6389426 -0.48713696 4289806260
2.930371 0.62126642 -0.3678017 4289806260
2.8749809 0.60900033 -0.25710943 4289806260
3.0670261 0.64129317 -0.60906237 4289806260
3.0107744 0.62843603 -0.48713696 4289806260
2.959729 0.61670339 -0.37121406 4289806260
2.8887928 0.60139674 -0.25815532 4289806260
3.0903997 0.63493162 -0.61326015 4289806260
3.0245605 0.62030309 -0.48901421 4289806260
2.973532 0.60875624 -0.37267649 4289806260
2.9084425 0.59490192 -0.25972411 4289806260
3.1022198 0.62608141 -0.61516827 4289806260
3.0421991 0.61286312 -0.49151716 4289806260
2.9698005 0.59719807 -0.37194526 4289806260
2.9183145 0.58631629 -0.26042137 4289806260
3.1120892 0.61677611 -0.61669469 4289806260
3.0636981 0.60607284 -0.49464583 4289806260
2.9777091 0.58798367 -0.37267649 4289806260
2.9359813 0.57921016 -0.26181585 4289806260
3.1180778 0.60665822 -0.61745793 4289806260
3.0813081 0.59838814 -0.49714881 4289806260
2.9992318 0.58136266 -0.37511387 4289806260
2.9536333 0.57198918 -0.26321036 4289806260
3.0891998 0.58873731 -0.49808741 4289806260
3.0265944 0.5757128 -0.37828246 4289806260
2.9536545 0.56130278 -0.26303601 4289806260
2.9198618 0.55382645 -0.15575182 4289806260
3.0951195 0.57867712 -0.49871314 4289806260
3.03444 0.56623614 -0.37901369 4289806260
2.9790998 0.55537146 -0.26512775 4289806260
2.9080327 0.54107273 -0.15501912 4289806260
3.1146071 0.57107651 -0.50152892 4289806260
3.0461614 0.55742633 -0.38023239 4289806260
2.9966993 0.54783612 -0.26652226 4289806260
2.9157982 0.53199315 -0.15533313 4289806260
3.1262047 0.56249315 -0.5030933 4289806260
3.0519006 0.54802412 -0.38071984 4289806260
3.0123212 0.53983164 -0.26774243 4289806260
2.94507 0.52724922 -0.15679854 4289806260
3.1398215 0.55363458 -0.50497049 4289806260
3.0733454 0.54080856 -0.38315722 4289806260
3.0239069 0.5315634 -0.26861399 4289806260
2.9567287 0.51869196 -0.1573219 4289806260
3.1495206 0.54401827 -0.50622195 4289806260
3.0967336 0.53378564 -0.38583836 4289806260
3.0277071 0.52134496 -0.26878831 4289806260
2.9782057 0.51174951 -0.15836863 4289806260
3.1611392 0.53466737 -0.50778633 4289806260
3.1064074 0.52429491 -0.38681334 4289806260
3.0471907 0.51375347 -0.2703571 4289806260
2.9819431 0.50168246 -0.15847328 4289806260
3.180526 0.52653247 -0.51060218 4289806260
3.1238873 0.5160358 -0.38876322 4289806260
3.0705891 0.50668097 -0.27227452 4289806260
2.9955006 0.49321657 -0.15910132 4289806260
3.2154939 0.5207969 -0.51592094 4289806260
3.1393871 0.50734431 -0.39046943 4289806260
3.0841408 0.49786532 -0.27332041 4289806260
3.014951 0.48561499 -0.16004337 4289806260
3.1509426 0.4979341 -0.39168811 4289806260
3.0462213 0.47975069 -0.16161345 4289806260
3.0376461 0.45669076 -0.16098543 4289806260
