# .PCD v0.7 - Point Cloud Data file format
VERSION 0.7
FIELDS x y z intensity
SIZE 4 4 4 4
TYPE F F F F
COUNT 1 1 1 1
WIDTH 136
HEIGHT 1
VIEWPOINT 0 0 0 1 0 0 0
POINTS 136
DATA ascii
3.2217464 0.50297874 -0.52241856 100
3.2183878 0.50208396 -0.51498652 100
3.2150295 0.50118923 -0.50755441 100
3.2116709 0.50029445 -0.50012231 100
3.2083123 0.49939969 -0.49269027 100
3.2049539 0.49850494 -0.48525819 100
3.2015953 0.49761018 -0.47782609 100
3.1982369 0.49671543 -0.47039402 100
3.1948783 0.49582064 -0.46296194 100
3.19152 0.49492589 -0.45552987 100
3.1881614 0.49403113 -0.4480978 100
3.1848028 0.49313638 -0.44066572 100
3.1814444 0.49224162 -0.43323365 100
3.1780858 0.49134687 -0.42580158 100
3.1747274 0.49045208 -0.41836947 100
3.1713688 0.48955733 -0.4109374 100
3.1680105 0.48866257 -0.40350533 100
3.1646519 0.48776782 -0.39607322 100
3.1612933 0.48687303 -0.38864115 100
3.1579349 0.48597828 -0.38120908 100
3.1545763 0.48508352 -0.373777 100
3.1512179 0.48418877 -0.3663449 100
3.1478593 0.48329401 -0.35891283 100
3.1445007 0.48239923 -0.35148075 100
3.1411424 0.48150447 -0.34404865 100
3.1377838 0.48060971 -0.33661658 100
3.1344254 0.47971496 -0.3291845 100
3.1310668 0.4788202 -0.32175243 100
3.1277084 0.47792545 -0.31432036 100
3.1243498 0.47703066 -0.30688831 100
3.1209912 0.47613591 -0.29945624 100
3.1176329 0.47524115 -0.29202417 100
3.1142743 0.4743464 -0.28459209 100
3.1109159 0.47345164 -0.27716002 100
3.1075573 0.47255689 -0.26972795 100
3.1041989 0.4716621 -0.26229587 100
3.1008403 0.47076735 -0.2548638 100
3.097482 0.46987259 -0.24743173 100
3.0941234 0.46897784 -0.23999967 100
3.0907648 0.46808308 -0.23256759 100
3.0874064 0.46718833 -0.22513552 100
3.0840478 0.46629354 -0.21770345 100
3.0806894 0.46539879 -0.21027137 100
3.0773308 0.46450403 -0.20283931 100
3.0739725 0.46360928 -0.19540724 100
3.024524 0.1548063 -0.72764254 100
3.0287602 0.16140857 -0.72513682 100
3.0329967 0.16801086 -0.7226311 100
3.0372331 0.17461315 -0.72012538 100
3.0414696 0.18121544 -0.7176196 100
3.0457058 0.18781771 -0.71511388 100
3.0499423 0.19441999 -0.71260816 100
3.0541787 0.20102228 -0.71010244 100
3.0584149 0.20762457 -0.70759672 100
3.0626514 0.21422684 -0.70509094 100
3.0668879 0.22082913 -0.70258522 100
3.0711241 0.22743142 -0.7000795 100
3.0753605 0.23403369 -0.69757378 100
3.079597 0.24063598 -0.69506806 100
3.0838332 0.24723826 -0.69256228 100
3.0880697 0.25384057 -0.69005656 100
3.0923061 0.26044285 -0.68755084 100
3.0965424 0.26704514 -0.68504512 100
3.1007788 0.27364743 -0.68253934 100
3.1050153 0.28024971 -0.68003362 100
3.1092517 0.286852 -0.6775279 100
3.113488 0.29345429 -0.67502218 100
3.1177244 0.30005658 -0.67251647 100
3.1219609 0.30665886 -0.67001069 100
3.1261971 0.31326115 -0.66750497 100
3.1304336 0.31986344 -0.66499925 100
3.13467 0.3264657 -0.66249353 100
3.1389062 0.33306798 -0.65998781 100
3.1431427 0.33967027 -0.65748203 100
3.1473792 0.34627253 -0.65497631 100
3.1516154 0.35287482 -0.65247059 100
3.1558518 0.3594771 -0.64996487 100
3.1600883 0.36607936 -0.64745915 100
3.1643245 0.37268165 -0.64495343 100
3.168561 0.37928393 -0.64244765 100
3.1727974 0.38588619 -0.63994193 100
3.1770337 0.39248848 -0.63743621 100
3.1812701 0.39909077 -0.63493049 100
3.1855066 0.40569302 -0.63242477 100
3.1897428 0.41229531 -0.62991905 100
3.1939793 0.4188976 -0.62741327 100
3.1982157 0.42549986 -0.62490755 100
3.2024519 0.43210214 -0.62240183 100
3.2066884 0.43870443 -0.61989611 100
3.2109249 0.44530669 -0.61739039 100
3.2151611 0.45190898 -0.61488467 100
2.8921144 0.80034059 -0.72350842 100
2.8982775 0.79541034 -0.72126979 100
2.9044409 0.79048014 -0.71903116 100
2.9106042 0.78554994 -0.71679258 100
2.9167674 0.78061974 -0.71455395 100
2.9229307 0.77568954 -0.71231538 100
2.9290938 0.77075934 -0.71007675 100
2.9352572 0.76582915 -0.70783812 100
2.9414206 0.76089895 -0.70559955 100
2.9475837 0.75596875 -0.70336092 100
2.953747 0.75103855 -0.70112228 100
2.9599104 0.74610835 -0.69888371 100
2.9660735 0.74117815 -0.69664508 100
2.9722369 0.73624796 -0.69440651 100
2.9784002 0.73131776 -0.69216788 100
2.9845634 0.72638756 -0.68992925 100
2.9907267 0.72145736 -0.68769068 100
2.9968901 0.71652716 -0.68545204 100
3.0030532 0.71159697 -0.68321341 100
3.0092165 0.70666677 -0.68097484 100
3.0153799 0.70173651 -0.67873621 100
3.021543 0.69680631 -0.67649764 100
3.0277064 0.69187611 -0.67425901 100
3.0338697 0.68694592 -0.67202038 100
3.0400329 0.68201572 -0.6697818 100
3.0461962 0.67708552 -0.66754317 100
3.0523596 0.67215532 -0.66530454 100
3.0585227 0.66722512 -0.66306597 100
3.0646861 0.66229492 -0.66082734 100
3.0708494 0.65736473 -0.65858877 100
3.0770125 0.65243453 -0.65635014 100
3.0831759 0.64750433 -0.65411156 100
3.089339 0.64257413 -0.65187293 100
3.0955024 0.63764393 -0.6496343 100
3.1016657 0.63271374 -0.64739573 100
3.1078289 0.62778354 -0.6451571 100
3.1139922 0.62285334 -0.64291853 100
3.1201556 0.6179232 -0.6406799 100
3.1263187 0.612993 -0.63844132 100
3.1324821 0.6080628 -0.63620269 100
3.1386452 0.60313261 -0.63396406 100
3.1448085 0.59820241 -0.63172549 100
3.1509719 0.59327221 -0.62948686 100
3.157135 0.58834201 -0.62724829 100
3.1632984 0.58341181 -0.62500966 100
