# .PCD v0.7 - Point Cloud Data file format
VERSION 0.7
FIELDS x y z intensity
SIZE 4 4 4 4
TYPE F F F F
COUNT 1 1 1 1
WIDTH 143
HEIGHT 1
VIEWPOINT 0 0 0 1 0 0 0
POINTS 143
DATA ascii
2.9898443 0.097089678 -0.75243825 100
2.9941854 0.10387596 -0.74981672 100
2.9985266 0.11066224 -0.74719518 100
3.0028675 0.11744852 -0.74457365 100
3.0072086 0.12423479 -0.74195212 100
3.0115495 0.13102107 -0.73933059 100
3.0158906 0.13780735 -0.73670906 100
3.0202315 0.14459363 -0.73408753 100
3.0245726 0.1513799 -0.731466 100
3.0289135 0.15816619 -0.72884446 100
3.0332546 0.16495246 -0.72622293 100
3.0375957 0.17173873 -0.7236014 100
3.0419366 0.17852502 -0.72097987 100
3.0462778 0.18531129 -0.71835834 100
3.0506186 0.19209757 -0.71573681 100
3.0549598 0.19888386 -0.71311527 100
3.0593007 0.20567013 -0.71049374 100
3.0636418 0.21245642 -0.70787215 100
3.0679827 0.21924271 -0.70525062 100
3.0723238 0.22602898 -0.70262909 100
3.0766649 0.23281527 -0.70000756 100
3.0810058 0.23960155 -0.69738603 100
3.0853469 0.24638782 -0.69476449 100
3.0896878 0.2531741 -0.69214296 100
3.0940289 0.25996038 -0.68952143 100
3.0983698 0.26674667 -0.6868999 100
3.102711 0.27353296 -0.68427837 100
3.1070521 0.28031921 -0.68165684 100
3.111393 0.2871055 -0.67903531 100
3.1157341 0.29389176 -0.67641377 100
3.120075 0.30067804 -0.67379224 100
3.1244161 0.3074643 -0.67117071 100
3.128757 0.31425059 -0.66854918 100
3.1330981 0.32103685 -0.66592765 100
3.137439 0.32782313 -0.66330612 100
3.1417801 0.33460939 -0.66068459 100
3.146121 0.34139568 -0.65806305 100
3.1504622 0.34818193 -0.65544152 100
3.154803 0.35496822 -0.65281999 100
3.1591442 0.36175448 -0.65019846 100
3.1634853 0.36854073 -0.64757693 100
3.1678262 0.37532702 -0.6449554 100
3.1721673 0.38211328 -0.64233387 100
3.1765082 0.38889956 -0.63971233 100
3.1808493 0.39568582 -0.6370908 100
3.1851902 0.40247211 -0.63446927 100
3.1895313 0.40925837 -0.63184774 100
3.1938722 0.41604465 -0.62922621 100
3.1982133 0.42283091 -0.62660468 100
3.2025542 0.4296172 -0.62398314 100
3.2068954 0.43640345 -0.62136161 100
3.2112365 0.44318974 -0.61874008 100
3.2155774 0.449976 -0.61611855 100
2.8927968 0.8006776 -0.72063726 100
2.8989947 0.79580176 -0.71843392 100
2.9051924 0.79092592 -0.71623063 100
2.9113903 0.78605008 -0.71402735 100
2.917588 0.7811743 -0.71182406 100
2.9237857 0.77629846 -0.70962077 100
2.9299836 0.77142262 -0.70741749 100
2.9361813 0.76654679 -0.70521414 100
2.9423792 0.76167095 -0.70301086 100
2.9485769 0.75679517 -0.70080757 100
2.9547749 0.75191933 -0.69860429 100
2.9609725 0.74704349 -0.696401 100
2.9671702 0.74216765 -0.69419771 100
2.9733682 0.73729181 -0.69199443 100
2.9795659 0.73241603 -0.68979108 100
2.9857638 0.72754019 -0.6875878 100
2.9919615 0.72266436 -0.68538451 100
2.9981594 0.71778852 -0.68318123 100
3.0043571 0.71291268 -0.68097794 100
3.010555 0.70803684 -0.67877465 100
3.0167527 0.703161 -0.67657131 100
3.0229504 0.69828522 -0.67436802 100
3.0291483 0.69340938 -0.67216474 100
3.035346 0.68853354 -0.66996145 100
3.041544 0.68365771 -0.66775817 100
3.0477417 0.67878187 -0.66555488 100
3.0539396 0.67390609 -0.66335154 100
3.0601373 0.66903025 -0.66114825 100
3.066335 0.66415441 -0.65894496 100
3.0725329 0.65927857 -0.65674168 100
3.0787306 0.65440279 -0.65453839 100
3.0849285 0.64952695 -0.65233511 100
3.0911262 0.64465111 -0.65013182 100
3.0973239 0.63977528 -0.64792854 100
3.1035218 0.6348995 -0.64572519 100
3.1097195 0.63002366 -0.6435219 100
3.1159174 0.62514782 -0.64131862 100
3.1221151 0.62027204 -0.63911533 100
3.1283131 0.6153962 -0.63691205 100
3.1345108 0.61052036 -0.63470876 100
3.1407084 0.60564452 -0.63250548 100
3.1469064 0.60076874 -0.63030219 100
3.1531041 0.59589291 -0.62809891 100
3.159302 0.59101707 -0.62589556 100
3.1654997 0.58614129 -0.62369227 100
3.2250862 0.50572425 -0.52288181 100
3.2216558 0.50479001 -0.51547652 100
3.2182257 0.50385571 -0.50807118 100
3.2147954 0.5029214 -0.50066584 100
3.211365 0.50198716 -0.49326053 100
3.2079349 0.50105286 -0.48585522 100
3.2045045 0.50011861 -0.47844988 100
3.2010744 0.49918434 -0.47104457 100
3.197644 0.49825004 -0.46363923 100
3.1942136 0.49731576 -0.45623392 100
3.1907835 0.49638149 -0.44882861 100
3.1873531 0.49544722 -0.44142327 100
3.183923 0.49451295 -0.43401796 100
3.1804926 0.49357867 -0.42661262 100
3.1770625 0.4926444 -0.4192073 100
3.1736321 0.49171013 -0.41180196 100
3.1702018 0.49077585 -0.40439665 100
3.1667717 0.48984158 -0.39699131 100
3.1633413 0.48890731 -0.38958597 100
3.1599112 0.48797303 -0.38218066 100
3.1564808 0.48703873 -0.37477532 100
3.1530504 0.48610446 -0.36737001 100
3.1496203 0.48517019 -0.35996467 100
3.1461899 0.48423591 -0.35255936 100
3.1427598 0.48330164 -0.34515402 100
3.1393294 0.48236737 -0.33774868 100
3.1358991 0.48143309 -0.33034337 100
3.1324689 0.48049882 -0.32293805 100
3.1290386 0.47956455 -0.31553274 100
3.1256084 0.47863027 -0.30812743 100
3.1221781 0.477696 -0.30072209 100
3.1187479 0.47676173 -0.29331678 100
3.1153176 0.47582746 -0.28591147 100
3.1118872 0.47489318 -0.27850616 100
3.1084571 0.47395891 -0.27110085 100
3.1050267 0.47302464 -0.26369551 100
3.1015966 0.47209036 -0.2562902 100
3.0981662 0.47115606 -0.24888489 100
3.0947359 0.47022179 -0.24147958 100
3.0913057 0.46928751 -0.23407425 100
3.0878754 0.46835324 -0.22666894 100
3.0844452 0.46741897 -0.21926361 100
3.0810149 0.4664847 -0.2118583 100
3.0775847 0.46555042 -0.20445299 100
3.0741544 0.46461615 -0.19704767 100
