# .PCD v0.7 - Point Cloud Data file format
VERSION 0.7
FIELDS x y z rgb
SIZE 4 4 4 4
TYPE F F F U
COUNT 1 1 1 1
WIDTH 1089
HEIGHT 1
VIEWPOINT 0 0 0 1 0 0 0
POINTS 1089
DATA ascii
-3.0307951 -1.2883694 0.4043625 4289235830
-3.0389333 -1.2793226 0.40485001 4289235830
-3.0397155 -1.2671798 0.4043625 4289235830
-3.043901 -1.2570927 0.4043625 4289235830
-3.0298965 -1.2389464 0.40192512 4289235830
-3.0268426 -1.2253829 0.40095019 4289235830
-3.023731 -1.2118556 0.39997521 4289235830
-3.0353236 -1.2042216 0.40095019 4289235830
-3.0284224 -1.1892654 0.39948773 4289235830
-3.0212491 -1.1748993 0.39802533 4289235830
-3.0216262 -1.1629206 0.39753783 4289235830
-3.025667 -1.152366 0.39753783 4289235830
-3.0259562 -1.1403972 0.39705035 4289235830
-3.0261989 -1.1284398 0.39656287 4289235830
-3.0189445 -1.1137476 0.39510044 4289235830
-3.0153549 -1.1004804 0.39412549 4289235830
-3.0191779 -1.0899482 0.39412549 4289235830
-3.022964 -1.0794032 0.39412549 4289235830
-3.0192261 -1.0661997 0.39315054 4289235830
-3.0116851 -1.0517273 0.39168811 4289235830
-3.0076509 -1.0391412 0.39071316 4289235830
-3.0112598 -1.0286368 0.39071316 4289235830
-3.014832 -1.0181192 0.39071316 4289235830
-3.0183675 -1.0075892 0.39071316 4289235830
-3.0105557 -0.99331582 0.38925073 4289235830
-3.0102303 -0.98156929 0.38876322 4289235830
-3.013638 -0.97105557 0.38876322 4289235830
-3.0132263 -0.95932633 0.38827574 4289235830
-3.0127692 -0.94761103 0.3877883 4289235830
-3.0008931 -0.93237668 0.38583836 4289235830
-3.0041294 -0.9218958 0.38583836 4289235830
-3.0073292 -0.91140372 0.38583836 4289235830
-3.0066888 -0.89976239 0.38535091 4289235830
-3.009656 -0.88978678 0.38535091 4289235830
-2.9974985 -0.87482709 0.38340098 4289235830
-2.9967191 -0.86325949 0.38291353 4289235830
-2.9998631 -0.85226941 0.38291353 4289235830
-3.0026729 -0.84231669 0.38291353 4289235830
-3.0055945 -0.83183092 0.38291353 4289235830
-2.9893301 -0.8161062 0.38047612 4289235830
-2.9883268 -0.80463415 0.37998864 4289235830
-2.9911172 -0.79419869 0.37998864 4289235830
-2.9977124 -0.78475767 0.38047612 4289235830
-2.9965889 -0.77329671 0.37998864 4289235830
-2.9875944 -0.7604174 0.37852621 4289235830
-2.9863796 -0.74901891 0.37803873 4289235830
-2.9735589 -0.73478025 0.37608883 4289235830
-2.9798365 -0.72585499 0.3765763 4289235830
-2.9649789 -0.71128124 0.37438264 4289235830
-2.9635799 -0.70001519 0.37389517 4289235830
-2.9564579 -0.68690139 0.37267649 4289235830
-2.9625895 -0.67797917 0.37316394 4289235830
-3.0210996 -0.68028057 0.38023239 4289235830
-3.0660939 -0.67917562 0.38559461 4289235830
-3.1209342 -0.6793322 0.39217559 4289235830
-3.1445217 -0.67355239 0.39485672 4289235830
-3.1449111 -0.66216356 0.39461297 4289235830
-3.2292147 -0.65640414 0.40460625 4289235830
-3.2821 -0.65523326 0.41094348 4289235830
-3.3096917 -0.64873558 0.41411206 4289235830
-3.3470242 -0.64392912 0.41849938 4289235830
-3.4077704 -0.64328927 0.42581153 4289235830
-3.4450185 -0.63849664 0.43019882 4289235830
-3.5019131 -0.63640559 0.43702352 4289235830
-3.5471084 -0.6318363 0.44238573 4289235830
-3.5924237 -0.62633222 0.44774801 4289235830
-3.6650317 -0.62581688 0.45652261 4289235830
-3.7179914 -0.62217814 0.46285981 4289235830
-0.89123017 -1.6312437 0.29440969 4289235830
-0.89787239 -1.6298528 0.29472256 4289235830
-0.90163749 -1.6232551 0.29409683 4289235830
-0.90922862 -1.6235449 0.29472256 4289235830
-0.90781116 -1.6084788 0.2925325 4289235830
-0.91439724 -1.6070172 0.29284537 4289235830
-0.91901833 -1.6021019 0.2925325 4289235830
-0.92559409 -1.6005943 0.29284537 4289235830
-0.9271962 -1.5905272 0.29159388 4289235830
-0.93274224 -1.5872812 0.29159388 4289235830
-0.9382776 -1.5840154 0.29159388 4289235830
-0.95190203 -1.5942993 0.29409683 4289235830
-0.95746136 -1.5909668 0.29409683 4289235830
-0.9589113 -1.5808591 0.29284537 4289235830
-0.96854514 -1.5842435 0.29409683 4289235830
-0.9771781 -1.5858984 0.29503542 4289235830
-0.98687637 -1.5891901 0.29628691 4289235830
-0.99660963 -1.5924336 0.2975384 4289235830
-1.0000541 -1.5856037 0.29691264 4289235830
-1.0024041 -1.5771018 0.29597405 4289235830
-1.0142958 -1.5835736 0.29785126 4289235830
-1.0283872 -1.5933008 0.30035421 4289235830
-1.0328656 -1.5880455 0.30004135 4289235830
-1.0351542 -1.5794739 0.29910272 4289235830
-1.0406615 -1.5758508 0.29910272 4289235830
-1.0516274 -1.5804315 0.30066708 4289235830
-1.0659376 -1.589877 0.30317003 4289235830
-1.0759044 -1.5926938 0.30442151 4289235830
-1.0781226 -1.5840298 0.30348289 4289235830
-1.0847626 -1.5818859 0.30379578 4289235830
-1.0970149 -1.587841 0.30567297 4289235830
-1.1081934 -1.5921085 0.30723733 4289235830
-1.1134669 -1.5884247 0.30723733 4289235830
-1.1178653 -1.5829148 0.30692446 4289235830
-1.1256741 -1.5822221 0.30755019 4289235830
-1.1288886 -1.5750723 0.30692446 4289235830
-1.1450636 -1.5853362 0.30974028 4289235830
-1.1529149 -1.584524 0.310366 4289235830
-1.1537678 -1.5741171 0.30911455 4289235830
-1.1616023 -1.5732585 0.30974028 4289235830
-1.1694446 -1.5723641 0.310366 4289235830
-1.1867702 -1.5840816 0.31349471 4289235830
-1.1899126 -1.5767757 0.31286895 4289235830
-1.1930186 -1.5694672 0.31224322 4289235830
-1.2056948 -1.5747042 0.31412044 4289235830
-1.2123904 -1.57205 0.31443331 4289235830
-1.2299888 -1.5834085 0.31756201 4289235830
-1.2379431 -1.582217 0.31818774 4289235830
-1.2410128 -1.5747833 0.31756201 4289235830
-1.2452745 -1.5688943 0.31724915 4289235830
-1.2544439 -1.5691667 0.31818774 4289235830
-1.2661079 -1.5724711 0.3197521 4289235830
-1.27781 -1.5757139 0.32131645 4289235830
-1.2783042 -1.565124 0.32006493 4289235830
-1.2875248 -1.5652287 0.32100356 4289235830
-1.3005416 -1.5698524 0.32288077 4289235830
-1.313332 -1.5746328 0.32475799 4289235830
-1.3175498 -1.5685261 0.32444513 4289235830
-1.3204654 -1.5609013 0.3238194 4289235830
-1.3271867 -1.5577865 0.32413223 4289235830
-1.3429067 -1.5651374 0.32663518 4289235830
-1.3522369 -1.564924 0.32757381 4289235830
-1.3667682 -1.5706257 0.32976389 4289235830
-1.3696386 -1.5628738 0.32913816 4289235830
-1.3711643 -1.5536402 0.32819954 4289235830
-1.3883895 -1.5621332 0.33101538 4289235830
-1.3988308 -1.563409 0.33226684 4289235830
-1.4122139 -1.5673215 0.33414406 4289235830
-1.4099823 -1.5533592 0.33226684 4289235830
-1.4247253 -1.558634 0.33445692 4289235830
-1.4314953 -1.5551047 0.33476979 4289235830
-1.4409441 -1.5544442 0.33570841 4289235830
-1.4517528 -1.555181 0.33695987 4289235830
-1.4531136 -1.5457861 0.33602124 4289235830
-1.4650205 -1.5481329 0.3375856 4289235830
-1.4785922 -1.5515897 0.33946282 4289235830
-1.4976761 -1.560672 0.34259152 4289235830
-1.5250788 -1.5781622 0.34759742 4289235830
-1.5292006 -1.5714132 0.34728456 4289235830
-1.5346761 -1.566066 0.34728456 4289235830
-1.5498462 -1.5705419 0.34947464 4289235830
-1.5567113 -1.5665234 0.3497875 4289235830
-1.5747455 -1.5736468 0.35260335 4289235830
-1.5704139 -1.5584 0.35041323 4289235830
-1.5885075 -1.5653876 0.35322908 4289235830
-1.5996089 -1.5653598 0.35448053 4289235830
-1.6149801 -1.5694034 0.35667065 4289235830
-1.6247131 -1.5678711 0.35760921 4289235830
-1.6273232 -1.5594571 0.35698348 4289235830
-1.6341879 -1.5551289 0.35729638 4289235830
-1.6453493 -1.554842 0.35854784 4289235830
-1.6651709 -1.5626069 0.36167651 4289235830
-1.6732337 -1.5597705 0.36230227 4289235830
-1.675498 -1.5515287 0.36167651 4289235830
-1.6838119 -1.5483449 0.36230227 4289235830
-1.7037938 -1.5557778 0.36543098 4289235830
-1.7150679 -1.555128 0.36668244 4289235830
-1.7292935 -1.5570629 0.36855966 4289235830
-1.7379345 -1.5533472 0.36918539 4289235830
-1.7522106 -1.5551386 0.37106261 4289235830
-1.7650383 -1.5555429 0.37262696 4289235830
-1.7734305 -1.5519742 0.37325269 4289235830
-1.7892741 -1.5548446 0.37544277 4289235830
-1.7959158 -1.5501933 0.37575564 4289235830
-1.8043158 -1.5464859 0.37638137 4289235830
-1.8127117 -1.5427388 0.3770071 4289235830
-1.831665 -1.5478771 0.37982294 4289235830
-1.8415965 -1.545283 0.3807615 4289235830
-1.8545676 -1.5451673 0.38232586 4289235830
-1.8706042 -1.5474988 0.38451597 4289235830
-1.8762639 -1.5406319 0.38451597 4289235830
-1.8892851 -1.5403148 0.38608032 4289235830
-1.8836364 -1.5253391 0.38389024 4289235830
-1.8812519 -1.5125656 0.38232586 4289235830
-1.8878012 -1.5075516 0.38263875 4289235830
-1.903887 -1.5095434 0.38482881 4289235830
-1.9378816 -1.5238676 0.39046046 4289235830
-1.938518 -1.5134468 0.38952184 4289235830
-1.9419649 -1.5058002 0.389209 4289235830
-1.9516429 -1.5029678 0.39014763 4289235830
-1.9725699 -1.508144 0.3932763 4289235830
-1.9856901 -1.5072204 0.39484066 4289235830
-2.0038233 -1.5094411 0.39734361 4289235830
-2.0154076 -1.507169 0.39859506 4289235830
-2.0238285 -1.5024798 0.39922079 4289235830
-2.0433724 -1.5059537 0.40203664 4289235830
-2.0581822 -1.50581 0.40391383 4289235830
-2.0714171 -1.5044209 0.40547815 4289235830
-2.08761 -1.5056322 0.40766826 4289235830
-2.0976715 -1.5017856 0.40860689 4289235830
-2.1125619 -1.50132 0.41048408 4289235830
-2.1290889 -1.5019071 0.41267416 4289235830
-2.1407914 -1.4989982 0.41392565 4289235830
-2.150877 -1.4948984 0.41486427 4289235830
-2.1625857 -1.4918686 0.41611573 4289235830
-2.1808195 -1.4932388 0.41861868 4289235830
-2.192554 -1.4900579 0.41987014 4289235830
-2.2141187 -1.4934417 0.42299888 4289235830
-2.2228606 -1.487514 0.4236246 4289235830
-2.2346218 -1.4841166 0.42487606 4289235830
-2.2466443 -1.4802642 0.42612755 4289235830
-2.2765973 -1.4886289 0.43082058 4289235830
-2.286751 -1.4838989 0.43175918 4289235830
-2.2968991 -1.4791158 0.43269777 4289235830
-2.3117778 -1.4778749 0.43457499 4289235830
-2.3300083 -1.4786687 0.43707794 4289235830
-2.3568864 -1.4842101 0.44114524 4289235830
-2.3670781 -1.4791148 0.44208387 4289235830
-2.3789423 -1.4750068 0.44333532 4289235830
-2.3908064 -1.470834 0.44458681 4289235830
-2.4079852 -1.4692637 0.4467769 4289235830
-2.4316874 -1.4721022 0.45021844 4289235830
-2.4433286 -1.4680998 0.45146993 4289235830
-2.4569218 -1.46462 0.45303425 4289235830
-2.4943252 -1.4751402 0.4589788 4289235830
-2.5335348 -1.4864163 0.46523616 4289235830
-2.5540738 -1.4865059 0.46805197 4289235830
-2.5780649 -1.4884466 0.47149354 4289235830
-2.5835025 -1.4789882 0.47149354 4289235830
-2.6041093 -1.4787389 0.47430936 4289235830
-2.626467 -1.4793341 0.47743803 4289235830
-2.6385128 -1.4740106 0.47868952 4289235830
-2.6574647 -1.4724511 0.48119247 4289235830
-2.6781693 -1.4717277 0.48400828 4289235830
-2.6971667 -1.4699318 0.48651123 4289235830
-2.7231345 -1.4717795 0.49026567 4289235830
-2.7367048 -1.4674083 0.49182999 4289235830
-2.7609961 -1.4680477 0.49527156 4289235830
-2.7693434 -1.4607269 0.49589729 4289235830
-2.7884293 -1.458375 0.49840027 4289235830
-2.8180532 -1.4613646 0.50278044 4289235830
-2.8409598 -1.4600548 0.50590914 4289235830
-2.8636396 -1.4590976 0.50903779 4289235830
-2.8755145 -1.4531572 0.51028925 4289235830
-2.8946986 -1.4501892 0.51279223 4289235830
-2.9245121 -1.4523768 0.5171724 4289235830
-2.9526036 -1.4535021 0.5212397 4289235830
-2.9771876 -1.4527154 0.52468127 4289235830
-2.9893541 -1.4457537 0.52593273 4289235830
-3.0121956 -1.4438484 0.52906144 4289235830
-3.0424488 -1.4446614 0.5334416 4289235830
-3.0635598 -1.4416013 0.53625745 4289235830
-3.0683231 -1.4314349 0.53625745 4289235830
-3.0571637 -1.4132556 0.5334416 4289235830
-3.0546501 -1.3998188 0.53219014 4289235830
-3.0595181 -1.3891467 0.53219014 4289235830
-3.0605049 -1.3773727 0.53156441 4289235830
-3.061686 -1.3650714 0.53093863 4289235830
-3.0488324 -1.3453306 0.52780992 4289235830
-3.0390296 -1.3283515 0.525307 4289235830
-3.0472736 -1.3193047 0.52593273 4289235830
-3.0518603 -1.3086597 0.52593273 4289235830
-3.060046 -1.2995436 0.52655846 4289235830
-3.0445337 -1.2804294 0.52311689 4289235830
-3.0396459 -1.266528 0.52155256 4289235830
-3.0422227 -1.255156 0.5212397 4289235830
-3.0465853 -1.2445296 0.5212397 4289235830
-3.0454171 -1.2316655 0.5203011 4289235830
-3.0368607 -1.2158877 0.51811105 4289235830
-3.0300677 -1.2009134 0.5162338 4289235830
-3.0377114 -1.1923021 0.51685953 4289235830
-3.0455372 -1.1831217 0.51748526 4289235830
-3.0422738 -1.1696473 0.5162338 4289235830
-3.0278754 -1.1519963 0.51310509 4289235830
-3.0281804 -1.1400286 0.51247936 4289235830
-3.0321417 -1.1294513 0.51247936 4289235830
-3.0305049 -1.1168109 0.51154077 4289235830
-3.0399528 -1.1082554 0.51247936 4289235830
-3.0252202 -1.0909359 0.50935066 4289235830
-3.0234282 -1.0783784 0.50841206 4289235830
-3.023448 -1.0665046 0.50778633 4289235830
-3.032748 -1.057896 0.50872493 4289235830
-3.0362394 -1.0478331 0.50872493 4289235830
-3.0230529 -1.0314864 0.50590914 4289235830
-3.0228915 -1.0196656 0.50528342 4289235830
-3.0170627 -1.0059832 0.50371903 4289235830
-3.0243082 -0.99668217 0.50434476 4289235830
-3.0277686 -0.98611993 0.50434476 4289235830
-3.0142686 -0.97009754 0.50152892 4289235830
-3.0101068 -0.95717543 0.50027746 4289235830
-3.0190833 -0.94843906 0.50121611 4289235830
-3.0167155 -0.93613827 0.50027746 4289235830
-3.0199649 -0.92560214 0.50027746 4289235830
-3.0099432 -0.91104829 0.49808741 4289235830
-3.0148399 -0.90162915 0.49840027 4289235830
-3.0122855 -0.88942099 0.49746165 4289235830
-3.0153718 -0.87890065 0.49746165 4289235830
-3.0146246 -0.86727726 0.49683592 4289235830
-3.0024314 -0.85243356 0.49433297 4289235830
-3.0053885 -0.84194785 0.49433297 4289235830
-3.0083094 -0.83145112 0.49433297 4289235830
-3.0073814 -0.81990653 0.49370724 4289235830
-3.0064101 -0.80837792 0.49308151 4289235830
-3.0053947 -0.79686606 0.49245578 4289235830
-2.9928684 -0.78237426 0.4899528 4289235830
-3.003233 -0.7738933 0.49120426 4289235830
-3.0057826 -0.7639305 0.49120426 4289235830
-3.0045989 -0.75247318 0.49057853 4289235830
-2.9936531 -0.73919129 0.48838848 4289235830
-2.9699252 -0.7113716 0.48369545 4289235830
-2.9839258 -0.70372075 0.48557264 4289235830
-2.9863639 -0.69330126 0.48557264 4289235830
-2.965657 -0.67759264 0.4818182 4289235830
-3.0123315 -0.67720085 0.48901421 4289235830
-3.0706115 -0.67905205 0.49808741 4289235830
-3.1173589 -0.67798489 0.50528342 4289235830
-3.156409 -0.67494732 0.51122791 4289235830
-3.14908 -0.66189432 0.50966352 4289235830
-3.1668479 -0.65409368 0.5121665 4289235830
-3.2117021 -0.65167707 0.51904958 4289235830
-3.2701387 -0.6516577 0.52812284 4289235830
-3.3227973 -0.65010095 0.53625745 4289235830
-3.3444459 -0.64222342 0.53938609 4289235830
-3.3970273 -0.64064729 0.5475207 4289235830
-3.4536309 -0.6388461 0.55628103 4289235830
-3.5063751 -0.63595223 0.56441563 4289235830
-3.5435815 -0.62993205 0.57004726 4289235830
-3.5964658 -0.62574446 0.57818186 4289235830
-3.6531529 -0.62247634 0.5869422 4289235830
-3.7155976 -0.62044525 0.59664112 4289235830
-3.7645295 -0.61511576 0.60415 4289235830
-0.848279 -1.6323106 0.35757607 4289235830
-0.85852867 -1.6380341 0.35948417 4289235830
-0.85965407 -1.6263489 0.35757607 4289235830
-0.86532587 -1.6233381 0.35757607 4289235830
-0.87656444 -1.6306831 0.35986578 4289235830
-0.8859936 -1.6345174 0.36139226 4289235830
-0.89357698 -1.63486 0.3621555 4289235830
-0.89927834 -1.631731 0.3621555 4289235830
-0.89829308 -1.6165694 0.35948417 4289235830
-0.90680927 -1.6185622 0.36062902 4289235830
-0.91438478 -1.6188058 0.36139226 4289235830
-0.91489184 -1.6072336 0.35948417 4289235830
-0.91561073 -1.5955163 0.35757607 4289235830
-0.92243594 -1.5938489 0.35795769 4289235830
-0.93195117 -1.5974022 0.35948417 4289235830
-0.93923324 -1.5976881 0.3602474 4289235830
-0.94480413 -1.5944 0.3602474 4289235830
-0.94633704 -1.5843503 0.35872093 4289235830
-0.95996267 -1.594493 0.36177388 4289235830
-0.96959656 -1.5978459 0.36330032 4289235830
-0.97311956 -1.5911019 0.36253712 4289235830
-0.97660732 -1.584353 0.36177388 4289235830
-0.98213184 -1.5809343 0.36177388 4289235830
-0.99181128 -1.5841526 0.36330032 4289235830
-1.0015259 -1.5873222 0.3648268 4289235830
-1.009167 -1.5871302 0.36559007 4289235830
-1.014701 -1.5835978 0.36559007 4289235830
-1.0202228 -1.5800462 0.36559007 4289235830
-1.0257319 -1.5764751 0.36559007 4289235830
-1.0398401 -1.5860199 0.36864299 4289235830
-1.0496987 -1.5889328 0.37016946 4289235830
-1.0476234 -1.5738192 0.36749816 4289235830
-1.0563916 -1.5750437 0.36864299 4289235830
-1.0662799 -1.5778534 0.37016946 4289235830
-1.0750964 -1.5789902 0.37131432 4289235830
-1.083933 -1.5800848 0.3724592 4289235830
-1.0939068 -1.5827516 0.37398565 4289235830
-1.091572 -1.5676455 0.37131432 4289235830
-1.1026748 -1.5718617 0.37322241 4289235830
-1.1169437 -1.5810242 0.37627536 4289235830
-1.1224555 -1.577116 0.37627536 4289235830
-1.1270841 -1.5713961 0.37589374 4289235830
-1.1337123 -1.5690435 0.37627536 4289235830
-1.1414932 -1.5682511 0.3770386 4289235830
-1.1562476 -1.576923 0.38009155 4289235830
-1.1640779 -1.5760356 0.38085476 4289235830
-1.1672283 -1.5688125 0.38009155 4289235830
-1.1726975 -1.5647285 0.38009155 4289235830
-1.180518 -1.5637591 0.38085476 4289235830
-1.197853 -1.5752563 0.38467094 4289235830
-1.209313 -1.5788587 0.38657904 4289235830
-1.2160161 -1.5761824 0.38696066 4289235830
-1.2203059 -1.5703777 0.38657904 4289235830
-1.2306209 -1.5722922 0.38810554 4289235830
-1.2433939 -1.5772378 0.39039519 4289235830
-1.2525543 -1.5775003 0.39154008 4289235830
-1.2556007 -1.5700525 0.39077684 4289235830
-1.259842 -1.5641309 0.39039519 4289235830
-1.2690051 -1.5642973 0.39154008 4289235830
-1.2819109 -1.5689803 0.39382979 4289235830
-1.2936168 -1.5720761 0.39573789 4289235830
-1.2978437 -1.5660393 0.39535624 4289235830
-1.3033023 -1.5614995 0.39535624 4289235830
-1.3135256 -1.5631812 0.39688274 4289235830
-1.3316561 -1.5735732 0.40069893 4289235830
-1.3384145 -1.5704091 0.40108052 4289235830
-1.3349376 -1.5552994 0.39840919 4289235830
-1.3454938 -1.5565716 0.39993569 4289235830
-1.356075 -1.5577885 0.40146214 4289235830
-1.3734258 -1.5660923 0.40489674 4289235830
-1.3840826 -1.5671747 0.40642318 4289235830
-1.3840541 -1.5567074 0.40489674 4289235830
-1.3868603 -1.5489411 0.40413347 4289235830
-1.4011903 -1.5545417 0.40680483 4289235830
-1.4187561 -1.5624771 0.41023937 4289235830
-1.4281765 -1.5618615 0.41138422 4289235830
-1.4269705 -1.5496457 0.40947613 4289235830
-1.4377102 -1.5504136 0.41100258 4289235830
-1.4471333 -1.5496904 0.41214746 4289235830
-1.4646382 -1.5575018 0.41558203 4289235830
-1.4781659 -1.5609323 0.41787171 4289235830
-1.4779149 -1.5503381 0.41634527 4289235830
-1.4833181 -1.5451694 0.41634527 4289235830
-1.5146288 -1.5668012 0.42359596 4289235830
-1.5392607 -1.5811996 0.42893866 4289235830
-1.5516425 -1.5828269 0.43084675 4289235830
-1.5530206 -1.5732094 0.42970186 4289235830
-1.5557344 -1.5649941 0.42893866 4289235830
-1.5722995 -1.5706539 0.43199161 4289235830
-1.5861354 -1.5734518 0.43428129 4289235830
-1.5930163 -1.5692836 0.43466291 4289235830
-1.5984844 -1.5637133 0.43466291 4289235830
-1.6053418 -1.5594918 0.43504456 4289235830
-1.6220788 -1.5647831 0.43809745 4289235830
-1.6332022 -1.5645441 0.43962395 4289235830
-1.6457655 -1.5655993 0.44153205 4289235830
-1.649793 -1.5584971 0.4411504 4289235830
-1.6552236 -1.5527283 0.4411504 4289235830
-1.6764356 -1.561661 0.44534823 4289235830
-1.6902508 -1.5640936 0.44763795 4289235830
-1.6983191 -1.5611372 0.44840118 4289235830
-1.7066581 -1.5578465 0.44916439 4289235830
-1.7120852 -1.55188 0.44916439 4289235830
-1.7235999 -1.5508468 0.4506909 4289235830
-1.7363228 -1.5513616 0.45259899 4289235830
-1.7534758 -1.5557146 0.45565188 4289235830
-1.7574227 -1.5482866 0.45527029 4289235830
-1.7719526 -1.5495892 0.45755997 4289235830
-1.7803159 -1.545969 0.45832324 4289235830
-1.7988123 -1.5515975 0.46175778 4289235830
-1.812893 -1.553288 0.46404752 4289235830
-1.8197987 -1.5482228 0.46442911 4289235830
-1.8236923 -1.5405942 0.46404752 4289235830
-1.8350757 -1.5392658 0.46557397 4289235830
-1.8555225 -1.5454153 0.46939012 4289235830
-1.8793328 -1.5536146 0.47396958 4289235830
-1.8817089 -1.544554 0.47320631 4289235830
-1.8840452 -1.5354955 0.4724431 4289235830
-1.887868 -1.5276743 0.47206149 4289235830
-1.8913932 -1.5201761 0.47167987 4289235830
-1.9028263 -1.5184622 0.47320631 4289235830
-1.9016966 -1.5072669 0.47167987 4289235830
-1.9262536 -1.5141797 0.47625926 4289235830
-1.9361706 -1.5110704 0.47740412 4289235830
-1.9507449 -1.5115174 0.47969386 4289235830
-1.9713055 -1.5170134 0.48351002 4289235830
-1.9622865 -1.4997385 0.48007545 4289235830
-1.9755907 -1.4984688 0.48198354 4289235830
-1.9980617 -1.5045538 0.48618135 4289235830
-2.0127356 -1.5046234 0.48847106 4289235830
-2.0290112 -1.5057783 0.49114239 4289235830
-2.0421584 -1.504509 0.49305046 4289235830
-2.0458126 -1.4962127 0.49266884 4289235830
-2.0653217 -1.4994427 0.49610341 4289235830
-2.0769141 -1.4968156 0.49762988 4289235830
-2.0914457 -1.4967755 0.49991959 4289235830
-2.1094613 -1.4985623 0.50297254 4289235830
-2.1117303 -1.4885583 0.50220931 4289235830
-2.1329999 -1.4924326 0.50602549 4289235830
-2.1572843 -1.4987941 0.51060492 4289235830
-2.1689682 -1.4957123 0.51213133 4289235830
-2.1855168 -1.4958943 0.51480269 4289235830
-2.1858532 -1.4849464 0.51365787 4289235830
-2.2189569 -1.4955784 0.52014536 4289235830
-2.2192686 -1.4845488 0.51900047 4289235830
-2.2394168 -1.4861758 0.52243507 4289235830
-2.2495098 -1.4815892 0.5235799 4289235830
-2.2678146 -1.482321 0.52663285 4289235830
-2.2795632 -1.4786693 0.52815932 4289235830
-2.3045206 -1.4834548 0.53273875 4289235830
-2.3262296 -1.4859709 0.53655493 4289235830
-2.3328025 -1.4793 0.53693652 4289235830
-2.3393569 -1.4726019 0.53731817 4289235830
-2.3578038 -1.4727474 0.54037106 4289235830
-2.3812861 -1.4758849 0.5445689 4289235830
-2.4017324 -1.4764005 0.54800349 4289235830
-2.4035192 -1.465963 0.5472402 4289235830
-2.4153402 -1.4616307 0.54876673 4289235830
-2.430527 -1.4592533 0.55105644 4289235830
-2.4555907 -1.4632456 0.55563581 4289235830
-2.4911044 -1.4726479 0.56250495 4289235830
-2.5368738 -1.4877794 0.57166374 4289235830
-2.5437484 -1.479903 0.57204539 4289235830
-2.5627604 -1.4784173 0.57509834 4289235830
-2.5900571 -1.4821393 0.58005941 4289235830
-2.6071665 -1.4798732 0.58273071 4289235830
-2.6208699 -1.4755793 0.58463877 4289235830
-2.6294327 -1.4683366 0.58540201 4289235830
-2.6482816 -1.4667588 0.58845496 4289235830
-2.6774764 -1.4707378 0.59379762 4289235830
-2.6998339 -1.4707752 0.59761381 4289235830
-2.7066786 -1.4622751 0.5979954 4289235830
-2.7221496 -1.4583809 0.60028511 4289235830
-2.7495081 -1.461324 0.60524619 4289235830
-2.7754335 -1.4627019 0.60982555 4289235830
-2.7976673 -1.4625858 0.61364174 4289235830
-2.8099823 -1.4559342 0.61516827 4289235830
-2.8310173 -1.4536968 0.61860281 4289235830
-2.8518209 -1.4518222 0.62203735 4289235830
-2.874145 -1.4512058 0.62585354 4289235830
-2.9087842 -1.4566108 0.63234103 4289235830
-2.9279189 -1.4534326 0.63539398 4289235830
-2.9294519 -1.441469 0.63463074 4289235830
-2.9750504 -1.4510289 0.643408 4289235830
-2.9889355 -1.4449075 0.64531606 4289235830
-3.027854 -1.4500545 0.65256679 4289235830
-3.0470862 -1.4462109 0.65561974 4289235830
-3.0521157 -1.4355663 0.65561974 4289235830
-3.0624464 -1.4273918 0.65676457 4289235830
-3.0707273 -1.4188753 0.6575278 4289235830
-3.0685213 -1.4048787 0.65600139 4289235830
-3.058861 -1.3882046 0.65294844 4289235830
-3.0457821 -1.3694685 0.64913225 4289235830
-3.0485134 -1.3585615 0.6487506 4289235830
-3.0555038 -1.3476382 0.64913225 4289235830
-3.0565913 -1.3353924 0.64836901 4289235830
-3.0396125 -1.315358 0.64378959 4289235830
-3.031554 -1.2993259 0.64111823 4289235830
-3.0360711 -1.2887359 0.64111823 4289235830
-3.0622694 -1.2872595 0.64569765 4289235830
-3.0359316 -1.2637371 0.63921016 4289235830
-3.0364754 -1.2521656 0.63844693 4289235830
-3.0335577 -1.23859 0.63692045 4289235830
-3.030582 -1.2250503 0.63539398 4289235830
-3.0384855 -1.2159221 0.63615721 4289235830
-3.0408859 -1.2045861 0.63577563 4289235830
-3.0487278 -1.1953974 0.63653886 4289235830
-3.0471845 -1.1831489 0.63539398 4289235830
-3.0274723 -1.1633502 0.63043296 4289235830
-3.0333493 -1.1534736 0.63081461 4289235830
-3.0336823 -1.1414953 0.63005131 4289235830
-3.0284491 -1.1274732 0.62814325 4289235830
-3.0231547 -1.113503 0.62623513 4289235830
-3.0270233 -1.1029433 0.62623513 4289235830
-3.0271609 -1.0910388 0.62547189 4289235830
-3.0420463 -1.0844215 0.62776166 4289235830
-3.027298 -1.0672678 0.62394547 4289235830
-3.0143206 -1.0508772 0.62051088 4289235830
-3.0307806 -1.0453565 0.62318224 4289235830
-3.0306942 -1.033504 0.62241894 4289235830
-3.0380046 -1.0241729 0.62318224 4289235830
-3.0303855 -1.009838 0.62089252 4289235830
-3.0171094 -0.99372679 0.61745793 4289235830
-3.0168264 -0.98197299 0.61669469 4289235830
-3.0333183 -0.97564411 0.61936599 4289235830
-3.0254791 -0.961483 0.61707634 4289235830
-3.0175784 -0.94738775 0.61478662 4289235830
-3.0114911 -0.93394083 0.6128785 4289235830
-3.0147331 -0.92342228 0.6128785 4289235830
-3.0216961 -0.91403073 0.61364174 4289235830
-3.0248685 -0.90347743 0.61364174 4289235830
-3.010901 -0.88844097 0.6102072 4289235830
-3.0026743 -0.87463117 0.60791749 4289235830
-3.0058599 -0.86361986 0.60791749 4289235830
-3.0145223 -0.8547287 0.60906237 4289235830
-3.0078876 -0.84208101 0.60715425 4289235830
-2.999454 -0.82844096 0.60486454 4289235830
-2.9928565 -0.8153854 0.60295647 4289235830
-2.9956846 -0.80493337 0.60295647 4289235830
-3.0079651 -0.79698563 0.60486454 4289235830
-3.0107286 -0.78648096 0.60486454 4289235830
-2.9944432 -0.77107102 0.60104835 4289235830
-2.9874697 -0.75872046 0.59914029 4289235830
-2.9958131 -0.74971807 0.60028511 4289235830
-3.0041306 -0.74066597 0.60143 4289235830
-2.9690068 -0.71060371 0.59341598 4289235830
-2.9735022 -0.70016694 0.59379762 4289235830
-2.9759281 -0.6897831 0.59379762 4289235830
-2.9820273 -0.68078458 0.59456086 4289235830
-3.0188646 -0.67811686 0.60143 4289235830
-3.0462523 -0.67254913 0.60639101 4289235830
-3.0811965 -0.66899306 0.6128785 4289235830
-3.1505954 -0.67312843 0.62623513 4289235830
-3.164454 -0.66454828 0.62852484 4289235830
-3.1917503 -0.6586563 0.63348591 4289235830
-3.2132709 -0.65141159 0.6373021 4289235830
-3.2424817 -0.64555877 0.64264476 4289235830
-3.2909584 -0.64327455 0.65180355 4289235830
-3.3683794 -0.64620894 0.66668665 4289235830
-3.3976254 -0.63953209 0.67202932 4289235830
-3.424825 -0.63289952 0.67699033 4289235830
-3.4926949 -0.63284153 0.68996537 4289235830
-3.5491166 -0.62963814 0.70065069 4289235830
-3.5822411 -0.62262446 0.70675659 4289235830
-3.6425631 -0.6193645 0.71820509 4289235830
-3.7025859 -0.61760747 0.7296536 4289235830
-3.7589722 -0.61353517 0.74033892 4289235830
-0.90638453 -1.6164807 0.42785689 4289235830
-0.92448878 -1.6353605 0.43370563 4289235830
-0.92026055 -1.6153535 0.42920661 4289235830
-0.9258936 -1.6121312 0.42920661 4289235830
-0.92691249 -1.6002954 0.4269571 4289235830
-0.93052775 -1.5936842 0.42605728 4289235830
-0.9377836 -1.5939492 0.4269571 4289235830
-0.9483124 -1.5990466 0.42920661 4289235830
-0.95588779 -1.5990721 0.4301064 4289235830
-0.95945233 -1.5923872 0.42920661 4289235830
-0.96500504 -1.5890285 0.42920661 4289235830
-0.97461528 -1.5922987 0.43100622 4289235830
-0.98835266 -1.6021552 0.43460542 4289235830
-0.99085253 -1.5937307 0.43325573 4289235830
-0.99227089 -1.5836567 0.43145612 4289235830
-1.0029951 -1.5884221 0.43370563 4289235830
-1.0095794 -1.5865556 0.43415552 4289235830
-1.0193192 -1.5895835 0.43595514 4289235830
-1.0280348 -1.5909259 0.43730485 4289235830
-1.0293285 -1.5807955 0.43550524 4289235830
-1.0380473 -1.5820808 0.43685496 4289235830
-1.0457131 -1.5816989 0.43775475 4289235830
-1.0533886 -1.5812826 0.43865454 4289235830
-1.0632459 -1.5840684 0.44045416 4289235830
-1.0644023 -1.5738901 0.43865454 4289235830
-1.0742788 -1.5766069 0.44045416 4289235830
-1.0830845 -1.5776671 0.44180387 4289235830
-1.0930192 -1.5802878 0.44360349 4289235830
-1.1029854 -1.5828582 0.4454031 4289235830
-1.1029053 -1.5710236 0.44315359 4289235830
-1.113734 -1.5753138 0.4454031 4289235830
-1.1237482 -1.5777655 0.44720268 4289235830
-1.1386143 -1.5863013 0.45080194 4289235830
-1.1509953 -1.5917922 0.45350131 4289235830
-1.1496611 -1.5783137 0.45080194 4289235830
-1.1563158 -1.5758623 0.4512518 4289235830
-1.1629679 -1.5733835 0.45170173 4289235830
-1.1719445 -1.5740036 0.45305145 4289235830
-1.1879548 -1.5839339 0.45710054 4289235830
-1.1970006 -1.5844423 0.45845026 4289235830
-1.1942636 -1.5693988 0.45530096 4289235830
-1.2009195 -1.5667672 0.45575082 4289235830
-1.2230538 -1.5841609 0.46204948 4289235830
-1.230969 -1.5829588 0.46294928 4289235830
-1.2256722 -1.5648447 0.45890018 4289235830
-1.2347484 -1.5651462 0.46024984 4289235830
-1.2462655 -1.5684556 0.46249935 4289235830
-1.261474 -1.5762677 0.46609858 4289235830
-1.2694144 -1.5748892 0.46699843 4289235830
-1.2724473 -1.5674229 0.46609858 4289235830
-1.2754443 -1.559954 0.46519879 4289235830
-1.2920307 -1.5690314 0.46924794 4289235830
-1.3049636 -1.5735122 0.47194731 4289235830
-1.3129466 -1.5719386 0.4728471 4289235830
-1.3181522 -1.5675761 0.4728471 4289235830
-1.3223568 -1.5614783 0.47239724 4289235830
-1.336651 -1.5672321 0.47554654 4289235830
-1.3421139 -1.5625565 0.47554654 4289235830
-1.3590342 -1.5711268 0.47959566 4289235830
-1.3581097 -1.5590266 0.47734615 4289235830
-1.3651004 -1.5555027 0.47779605 4289235830
-1.3769741 -1.5580294 0.48004553 4289235830
-1.3886099 -1.560734 0.48229504 4289235830
-1.3992512 -1.5616829 0.48409468 4289235830
-1.3992013 -1.5512459 0.48229504 4289235830
-1.4127403 -1.5547612 0.48499447 4289235830
-1.4207898 -1.5526955 0.48589426 4289235830
-1.431484 -1.5534587 0.48769391 4289235830
-1.444851 -1.5570229 0.49039328 4289235830
-1.450277 -1.5519702 0.49039328 4289235830
-1.4530146 -1.5440601 0.48949349 4289235830
-1.4637573 -1.5446367 0.49129307 4289235830
-1.4769422 -1.5482346 0.49399251 4289235830
-1.4944875 -1.5557179 0.4980416 4289235830
-1.4931345 -1.5434883 0.49579209 4289235830
-1.5257096 -1.5661845 0.50479019 4289235830
-1.5448138 -1.5747609 0.50928921 4289235830
-1.55441 -1.5735179 0.51063889 4289235830
-1.5708879 -1.5791348 0.51423806 4289235830
-1.5722532 -1.5695117 0.51288843 4289235830
-1.5804901 -1.5667577 0.51378822 4289235830
-1.5915045 -1.5666995 0.51558781 4289235830
-1.6053244 -1.5693084 0.51828724 4289235830
-1.6149874 -1.5677674 0.51963693 4289235830
-1.6120325 -1.554005 0.51693749 4289235830
-1.6230776 -1.5537591 0.51873708 4289235830
-1.641203 -1.560168 0.52278626 4289235830
-1.6579756 -1.5651313 0.52638549 4289235830
-1.6648502 -1.5606674 0.52683532 4289235830
-1.6671641 -1.5524819 0.52593553 4289235830
-1.6794564 -1.5535609 0.52818507 4289235830
-1.687739 -1.550326 0.52908486 4289235830
-1.707538 -1.5575582 0.53358394 4289235830
-1.7172978 -1.5555124 0.53493357 4289235830
-1.7244363 -1.5505112 0.53538352 4289235830
-1.7356527 -1.5496738 0.53718311 4289235830
-1.743968 -1.5461915 0.53808296 4289235830
-1.7669066 -1.5555469 0.54348177 4289235830
-1.7784652 -1.5541899 0.54528135 4289235830
-1.7791947 -1.5444515 0.54393166 4289235830
-1.7872581 -1.541088 0.54483145 4289235830
-1.8059491 -1.5462465 0.54888058 4289235830
-1.8261826 -1.5525556 0.5533796 4289235830
-1.8345692 -1.5486857 0.55427945 4289235830
-1.8414574 -1.543524 0.55472928 4289235830
-1.8543234 -1.5433198 0.55697882 4289235830
-1.868982 -1.5439599 0.55967826 4289235830
-1.8894273 -1.5497851 0.56417727 4289235830
-1.8948252 -1.5431807 0.56417727 4289235830
-1.8941391 -1.5316557 0.56237763 4289235830
-1.891611 -1.5192646 0.56012809 4289235830
-1.8938556 -1.5102223 0.5592283 4289235830
-1.9217678 -1.5220826 0.56597686 4289235830
-1.9324597 -1.5179672 0.56732655 4289235830
-1.9331367 -1.5076171 0.56597686 4289235830
-1.9458284 -1.5071653 0.56822634 4289235830
-1.9569942 -1.5054572 0.57002598 4289235830
-1.9730784 -1.5068965 0.57317531 4289235830
-1.9925656 -1.5102488 0.57722443 4289235830
-1.9962682 -1.5021124 0.57677448 4289235830
-2.0014994 -1.4951348 0.57677448 4289235830
-2.0301857 -1.5055512 0.58352304 4289235830
-2.0338593 -1.4972998 0.58307308 4289235830
-2.0485137 -1.4970903 0.58577251 4289235830
-2.0600362 -1.4945084 0.58757216 4289235830
-2.081054 -1.4986967 0.59207118 4289235830
-2.0986934 -1.5008559 0.5956704 4289235830
-2.118221 -1.5036731 0.59971952 4289235830
-2.1284978 -1.499266 0.60106921 4289235830
-2.1305242 -1.4895937 0.60016942 4289235830
-2.1498592 -1.4925224 0.60421854 4289235830
-2.1694977 -1.4949609 0.60826766 4289235830
-2.1875706 -1.4961798 0.61186683 4289235830
-2.204067 -1.4961958 0.61501622 4289235830
-2.2014539 -1.4826649 0.61276668 4289235830
-2.2147167 -1.4803859 0.61501622 4289235830
-2.2363684 -1.4830287 0.61951524 4289235830
-2.2626936 -1.4891404 0.62536395 4289235830
-2.277667 -1.4876267 0.62806332 4289235830
-2.2942934 -1.4870867 0.63121265 4289235830
-2.3109429 -1.4864485 0.63436198 4289235830
-2.3142169 -1.477728 0.63391209 4289235830
-2.3355634 -1.4804794 0.6384111 4289235830
-2.3489652 -1.4775048 0.64066058 4289235830
-2.3574145 -1.4713608 0.64156044 4289235830
-2.3774471 -1.472357 0.6456095 4289235830
-2.3927906 -1.4697531 0.64830893 4289235830
-2.4228673 -1.4766039 0.65505749 4289235830
-2.4296744 -1.4691458 0.65550733 4289235830
-2.4431429 -1.4656687 0.65775687 4289235830
-2.4563622 -1.4625437 0.6600064 4289235830
-2.4782312 -1.4638716 0.66450542 4289235830
-2.5455351 -1.4916661 0.68115181 4289235830
-2.5490425 -1.4817914 0.68070191 4289235830
-2.5595207 -1.4753587 0.6820516 4289235830
-2.5832641 -1.4770555 0.68700051 4289235830
-2.60027 -1.4747589 0.69014984 4289235830
-2.6376727 -1.4838269 0.69869798 4289235830
-2.6513448 -1.4793583 0.70094746 4289235830
-2.6581972 -1.4710385 0.70139736 4289235830
-2.6752744 -1.4683139 0.70454669 4289235830
-2.7094812 -1.4748038 0.71219504 4289235830
-2.7146125 -1.4653375 0.71219504 4289235830
-2.7403278 -1.4668889 0.71759385 4289235830
-2.7520616 -1.4614495 0.71939349 4289235830
-2.7761137 -1.4618217 0.72434241 4289235830
-2.7913096 -1.4580209 0.72704178 4289235830
-2.8292601 -1.4652971 0.73558998 4289235830
-2.8432808 -1.4593661 0.73783946 4289235830
-2.858778 -1.4547356 0.74053884 4289235830
-2.8775041 -1.4522717 0.74413806 4289235830
-2.9034696 -1.452682 0.74953693 4289235830
-2.9259806 -1.4511968 0.75403595 4289235830
-2.953763 -1.452152 0.75988466 4289235830
-2.9675732 -1.4461008 0.76213419 4289235830
-2.9866414 -1.4425126 0.76573336 4289235830
-3.0182762 -1.4441737 0.77248192 4289235830
-3.049711 -1.4461535 0.77923048 4289235830
-3.0776691 -1.446273 0.78507918 4289235830
-3.0650325 -1.4272952 0.78058016 4289235830
-3.06621 -1.4154896 0.77968031 4289235830
-3.0746768 -1.4063991 0.78058016 4289235830
-3.075774 -1.3945857 0.77968031 4289235830
-3.073513 -1.3806467 0.77788073 4289235830
-3.0584915 -1.361728 0.77293181 4289235830
-3.0565646 -1.346831 0.77113223 4289235830
-3.0594609 -1.3353744 0.77068228 4289235830
-3.0641036 -1.3246868 0.77068228 4289235830
-3.0615435 -1.3109146 0.76888269 4289235830
-3.0553358 -1.2956556 0.76618326 4289235830
-3.0508566 -1.2812091 0.76393378 4289235830
-3.0571096 -1.2713001 0.76438367 4289235830
-3.0577047 -1.2596705 0.76348388 4289235830
-3.0584743 -1.2475182 0.76258409 4289235830
-3.0519688 -1.2324562 0.75988466 4289235830
-3.0453951 -1.2174549 0.75718528 4289235830
-3.0460026 -1.2053822 0.75628549 4289235830
-3.0501912 -1.194743 0.75628549 4289235830
-3.0577703 -1.1860309 0.75718528 4289235830
-3.0436985 -1.1683663 0.75268626 4289235830
-3.0422933 -1.1556586 0.75133651 4289235830
-3.0408359 -1.1429757 0.74998683 4289235830
-3.0521135 -1.1350713 0.75178647 4289235830
-3.0469129 -1.1210452 0.74953693 4289235830
-3.0379887 -1.1057377 0.7463876 4289235830
-3.0381629 -1.093806 0.74548781 4289235830
-3.0346191 -1.0805794 0.74368823 4289235830
-3.0420487 -1.0712752 0.74458802 4289235830
-3.0494504 -1.0619309 0.74548781 4289235830
-3.0345304 -1.0454656 0.74098879 4289235830
-3.0344722 -1.0336093 0.740089 4289235830
-3.0380616 -1.0230113 0.740089 4289235830
-3.0416141 -1.0124003 0.740089 4289235830
-3.0414271 -1.0005589 0.73918921 4289235830
-3.0282216 -0.98451412 0.73514003 4289235830
-3.0334954 -0.9745329 0.73558998 4289235830
-3.0313065 -0.96216929 0.73424023 4289235830
-3.040225 -0.95333135 0.73558998 4289235830
-3.0342267 -0.9398309 0.73334044 4289235830
-3.0281713 -0.92638326 0.73109096 4289235830
-3.0127323 -0.91017085 0.72659194 4289235830
-3.0196257 -0.90076357 0.72749174 4289235830
-3.0225959 -0.8907451 0.72749174 4289235830
-3.025687 -0.8801887 0.72749174 4289235830
-3.0101609 -0.86371911 0.72299272 4289235830
-3.0056574 -0.85108185 0.72119308 4289235830
-3.0009561 -0.83901185 0.71939349 4289235830
-3.0076239 -0.82956696 0.72029328 4289235830
-3.0180225 -0.82111031 0.72209287 4289235830
-3.0058134 -0.80653018 0.7184937 4289235830
-2.9935391 -0.7920453 0.71489447 4289235830
-3.0000565 -0.78257543 0.71579427 4289235830
-3.0027704 -0.77209771 0.71579427 4289235830
-3.0090919 -0.76309454 0.71669406 4289235830
-2.9928312 -0.74786109 0.71219504 4289235830
-2.993531 -0.73694438 0.71174508 4289235830
-2.9984779 -0.71655095 0.71174508 4289235830
-2.9840109 -0.70154291 0.70769602 4289235830
-2.9845431 -0.69068235 0.70724607 4289235830
-2.9773169 -0.67861599 0.70499659 4289235830
-3.0715408 -0.67700881 0.72614199 4289235830
-3.1081665 -0.67371356 0.73424023 4289235830
-3.1561246 -0.67315865 0.74503791 4289235830
-3.1622698 -0.66293645 0.74593771 4289235830
-3.1874683 -0.65661281 0.75133651 4289235830
-3.2203014 -0.6516667 0.75853497 4289235830
-3.2646062 -0.64877826 0.7684328 4289235830
-3.2974539 -0.64335018 0.77563125 4289235830
-3.3551848 -0.64246351 0.78867841 4289235830
-3.391881 -0.6372242 0.79677659 4289235830
-3.4438024 -0.63516265 0.80847406 4289235830
-3.4996922 -0.63284779 0.82107133 4289235830
-3.5480418 -0.62817013 0.83186901 4289235830
-3.5924544 -0.62310797 0.84176683 4289235830
-3.6369824 -0.61710864 0.85166472 4289235830
-3.7023392 -0.61623806 0.86651146 4289235830
-3.7794802 -0.61552727 0.88405764 4289235830
-0.94027799 -1.609738 0.49952078 4289235830
-0.93510926 -1.5881342 0.49382678 4289235830
-0.95014089 -1.5881984 0.49589732 4289235830
-0.96365923 -1.5981072 0.50003839 4289235830
-0.9692322 -1.5947334 0.50003839 4289235830
-0.97075617 -1.5847514 0.49796787 4289235830
-0.98034155 -1.5879283 0.50003839 4289235830
-0.98996085 -1.5910577 0.50210893 4289235830
-0.99961382 -1.594139 0.50417954 4289235830
-1.0093005 -1.5971725 0.50625008 4289235830
-1.0127941 -1.5903805 0.50521481 4289235830
-1.0110354 -1.5754548 0.50159132 4289235830
-1.0259701 -1.5865158 0.50625008 4289235830
-1.0409943 -1.5974917 0.51090884 4289235830
-1.0476246 -1.5954629 0.51142645 4289235830
-1.0489235 -1.5853518 0.5093559 4289235830
-1.054451 -1.5816808 0.5093559 4289235830
-1.066429 -1.5876123 0.51246172 4289235830
-1.0773783 -1.5918794 0.51504993 4289235830
-1.0872819 -1.5944933 0.51712048 4289235830
-1.0862772 -1.5811348 0.51401466 4289235830
-1.0928892 -1.5789217 0.51453227 4289235830
-1.1028142 -1.5814354 0.51660281 4289235830
-1.1147141 -1.5872555 0.51970869 4289235830
-1.1224796 -1.5865086 0.52074397 4289235830
-1.1235256 -1.5762883 0.51867342 4289235830
-1.1312746 -1.5754952 0.51970869 4289235830
-1.1415714 -1.5775986 0.52177918 4289235830
-1.1516229 -1.5798489 0.52384979 4289235830
-1.1594179 -1.5789334 0.52488506 4289235830
-1.1672196 -1.577983 0.52592033 4289235830
-1.1715665 -1.57235 0.52540272 4289235830
-1.1863251 -1.5806113 0.52954376 4289235830
-1.1930004 -1.5780016 0.53006142 4289235830
-1.1985013 -1.5738276 0.53006142 4289235830
-1.202812 -1.5681016 0.52954376 4289235830
-1.2118214 -1.5684799 0.5310967 4289235830
-1.2220353 -1.5703386 0.5331673 4289235830
-1.237043 -1.5782272 0.53730839 4289235830
-1.2473328 -1.5799644 0.53937894 4289235830
-1.240817 -1.5604799 0.53420252 4289235830
-1.2486717 -1.5591547 0.53523779 4289235830
-1.261384 -1.5638087 0.53834367 4289235830
-1.2741436 -1.5683924 0.54144943 4289235830
-1.2820569 -1.566926 0.54248476 4289235830
-1.2850616 -1.5594593 0.54144943 4289235830
-1.2917315 -1.5564505 0.54196709 4289235830
-1.3030788 -1.559571 0.54455531 4289235830
-1.3184655 -1.5668381 0.5486964 4289235830
-1.3264247 -1.5651737 0.54973167 4289235830
-1.3318801 -1.560534 0.54973167 4289235830
-1.3410968 -1.5602709 0.55128461 4289235830
-1.3515922 -1.5614225 0.5533551 4289235830
-1.3621128 -1.5625197 0.5554257 4289235830
-1.3752054 -1.5664663 0.55853152 4289235830
-1.3755468 -1.5558671 0.55646098 4289235830
-1.3835387 -1.5539417 0.55749625 4289235830
-1.3989995 -1.5608537 0.56163734 4289235830
-1.4147942 -1.5674336 0.56577843 4289235830
-1.4140319 -1.5550908 0.56319028 4289235830
-1.4168422 -1.5472958 0.56215501 4289235830
-1.4287823 -1.5494421 0.56474322 4289235830
-1.4420695 -1.5529388 0.56784898 4289235830
-1.4540794 -1.5549504 0.57043719 4289235830
-1.4661201 -1.5568975 0.57302535 4289235830
-1.4686167 -1.5492229 0.57199007 4289235830
-1.4766836 -1.5468819 0.57302535 4289235830
-1.4874295 -1.5472887 0.57509595 4289235830
-1.5022268 -1.5518035 0.57871938 4289235830
-1.5292112 -1.568683 0.58700162 4289235830
-1.5400909 -1.5688499 0.58907217 4289235830
-1.549632 -1.5675863 0.59062505 4289235830
-1.5605463 -1.5676442 0.59269565 4289235830
-1.5728472 -1.5690089 0.59528387 4289235830
-1.5838042 -1.5689473 0.59735435 4289235830
-1.5878941 -1.5620544 0.59683669 4289235830
-1.5988648 -1.5619019 0.59890729 4289235830
-1.6084666 -1.5603471 0.60046023 4289235830
-1.6194687 -1.560084 0.60253078 4289235830
-1.6332806 -1.5624337 0.6056366 4289235830
-1.6415259 -1.5593837 0.60667187 4289235830
-1.6441485 -1.5509934 0.6056366 4289235830
-1.6636512 -1.5584521 0.61081296 4289235830
-1.6758814 -1.5595069 0.61340117 4289235830
-1.686718 -1.5591859 0.61547172 4289235830
-1.6949967 -1.5559015 0.61650699 4289235830
-1.6975617 -1.5473729 0.61547172 4289235830
-1.7144107 -1.5518091 0.61961281 4289235830
-1.7284383 -1.5535632 0.62271863 4289235830
-1.7398863 -1.5523627 0.62478918 4289235830
-1.7481866 -1.5488421 0.62582451 4289235830
-1.7535825 -1.5427303 0.62582451 4289235830
-1.7735058 -1.5493094 0.63100088 4289235830
-1.7847403 -1.5481727 0.63307142 4289235830
-1.7986456 -1.5498121 0.63617724 4289235830
-1.8040442 -1.5435245 0.63617724 4289235830
-1.813838 -1.5409701 0.63773018 4289235830
-1.8265891 -1.5408573 0.64031839 4289235830
-1.843804 -1.5443957 0.64445943 4289235830
-1.8580956 -1.545362 0.64756525 4289235830
-1.8619891 -1.5376364 0.64704764 4289235830
-1.8810594 -1.5418235 0.6517064 4289235830
-1.8909248 -1.5389061 0.65325934 4289235830
-1.9050319 -1.5399135 0.6563651 4289235830
-1.9103957 -1.5332544 0.6563651 4289235830
-1.8958317 -1.5112565 0.64963585 4289235830
-1.8995804 -1.5034311 0.64911819 4289235830
-1.9207964 -1.5077218 0.65429455 4289235830
-1.9351904 -1.5081327 0.65740043 4289235830
-1.9554578 -1.5135313 0.66257679 4289235830
-1.9528081 -1.5011516 0.65998858 4289235830
-1.96725 -1.5013583 0.6630944 4289235830
-1.9878769 -1.5061487 0.66827077 4289235830
-2.0041924 -1.5069797 0.67189431 4289235830
-2.0218253 -1.5092193 0.6760354 4289235830
-2.0208726 -1.4975518 0.6739648 4289235830
-2.0369806 -1.4985018 0.67758828 4289235830
-2.0499997 -1.4970789 0.68017644 4289235830
-2.0708539 -1.5012527 0.68535286 4289235830
-2.0820923 -1.4988918 0.68742341 4289235830
-2.0873115 -1.4916153 0.68742341 4289235830
-2.1066866 -1.4943794 0.69208211 4289235830
-2.1229475 -1.4948022 0.69570565 4289235830
-2.13607 -1.4929155 0.69829381 4289235830
-2.1523788 -1.4931586 0.70191729 4289235830
-2.1639421 -1.4900184 0.70398778 4289235830
-2.1707253 -1.4835458 0.70450544 4289235830
-2.1950753 -1.4889736 0.71071708 4289235830
-2.2162848 -1.4920905 0.71589351 4289235830
-2.2265577 -1.4871769 0.71744639 4289235830
-2.2333457 -1.4804631 0.71796405 4289235830
-2.2484415 -1.4786363 0.72106987 4289235830
-2.2713852 -1.482393 0.7267639 4289235830
-2.2878962 -1.4818064 0.73038733 4289235830
-2.3093059 -1.4842563 0.73556381 4289235830
-2.3142149 -1.4765906 0.73556381 4289235830
-2.3239949 -1.4720094 0.73711663 4289235830
-2.3454752 -1.4741681 0.742293 4289235830
-2.375195 -1.4813058 0.75005764 4289235830
-2.3737798 -1.4689399 0.74798709 4289235830
-2.3937099 -1.4697425 0.75264585 4289235830
-2.4056809 -1.4649777 0.75471634 4289235830
-2.4256611 -1.4655631 0.75937515 4289235830
-2.4454188 -1.466453 0.76403385 4289235830
-2.4704456 -1.4697607 0.77024549 4289235830
-2.4822159 -1.4650559 0.7723161 4289235830
-2.513988 -1.4720011 0.78059822 4289235830
-2.5458388 -1.4787413 0.78888047 4289235830
-2.5760937 -1.4843121 0.79664505 4289235830
-2.5915809 -1.4806107 0.79975086 4289235830
-2.5950527 -1.4706029 0.7992332 4289235830
-2.620379 -1.4728945 0.8054449 4289235830
-2.6406901 -1.4722049 0.81010365 4289235830
-2.6661005 -1.4741958 0.81631529 4289235830
-2.6864748 -1.4732413 0.82097405 4289235830
-2.6949952 -1.4657005 0.82200933 4289235830
-2.7170985 -1.4654542 0.82718569 4289235830
-2.7372732 -1.4646392 0.83184445 4289235830
-2.7662601 -1.4677516 0.83909136 4289235830
-2.77795 -1.4621702 0.84116197 4289235830
-2.7984512 -1.4605081 0.84582067 4289235830
-2.8069634 -1.4525063 0.84685594 4289235830
-2.838053 -1.4554323 0.85462052 4289235830
-2.8620591 -1.455147 0.86031455 4289235830
-2.8841181 -1.4543469 0.86549091 4289235830
-2.9012735 -1.4503165 0.8691144 4289235830
-2.9201655 -1.4470429 0.87325549 4289235830
-2.9460068 -1.4470614 0.87946719 4289235830
-2.9753571 -1.4486082 0.8867141 4289235830
-2.9995337 -1.4474494 0.89240813 4289235830
-3.0132823 -1.4411371 0.89499629 4289235830
-3.0482228 -1.4441447 0.90379614 4289235830
-3.0707326 -1.4417058 0.9089725 4289235830
-3.0754964 -1.4315149 0.9089725 4289235830
-3.075212 -1.4183433 0.90741962 4289235830
-3.0693569 -1.4033179 0.9043138 4289235830
-3.0619185 -1.3870161 0.90069032 4289235830
-3.0717881 -1.3792285 0.9022432 4289235830
-3.0801141 -1.3700678 0.90327853 4289235830
-3.0800478 -1.3558958 0.90172559 4289235830
-3.0652833 -1.3366414 0.89603156 4289235830
-3.0628362 -1.3228701 0.89396101 4289235830
-3.0674353 -1.3121707 0.89396101 4289235830
-3.0719969 -1.3014553 0.89396101 4289235830
-3.0658324 -1.2862405 0.89085519 4289235830
-3.0593772 -1.2716177 0.88774931 4289235830
-3.0512924 -1.255784 0.88412589 4289235830
-3.0556576 -1.2451246 0.88412589 4289235830
-3.0617769 -1.2351733 0.88464355 4289235830
-3.0624816 -1.2230459 0.88360828 4289235830
-3.0523593 -1.2066666 0.87946719 4289235830
-3.0509474 -1.1944251 0.87791425 4289235830
-3.0587008 -1.1851639 0.87894952 4289235830
-3.0519962 -1.1703303 0.87584364 4289235830
-3.0542572 -1.1589836 0.87532604 4289235830
-3.0401986 -1.1415243 0.87014967 4289235830
-3.0477862 -1.1322513 0.87118495 4289235830
-3.0517201 -1.1216055 0.87118495 4289235830
-3.0519855 -1.1096259 0.87014967 4289235830
-3.0485687 -1.0963506 0.86807907 4289235830
-3.0378158 -1.080523 0.86393797 4289235830
-3.0324571 -1.0667071 0.86134982 4289235830
-3.0398114 -1.0573854 0.86238509 4289235830
-3.0433011 -1.0472991 0.86238509 4289235830
-3.0487671 -1.0372918 0.8629027 4289235830
-3.034059 -1.0204839 0.85772634 4289235830
-3.0284367 -1.0068401 0.85513818 4289235830
-3.0374386 -0.99807191 0.85669106 4289235830
-3.0390668 -0.98686635 0.8561734 4289235830
-3.0388138 -0.97507232 0.85513818 4289235830
-3.0201011 -0.9574523 0.84892654 4289235830
-3.0197377 -0.94574952 0.84789127 4289235830
-3.0230205 -0.93520284 0.84789127 4289235830
-3.0299616 -0.92577451 0.84892654 4289235830
-3.0331745 -0.91519219 0.84892654 4289235830
-3.0213819 -0.90071344 0.84478539 4289235830
-3.0208013 -0.88907039 0.84375012 4289235830
-3.0201759 -0.87744236 0.84271485 4289235830
-3.0306485 -0.86902452 0.84478539 4289235830
-3.0262282 -0.85633612 0.84271485 4289235830
-3.0180347 -0.84265107 0.83960903 4289235830
-3.0172327 -0.83108485 0.83857375 4289235830
-3.016387 -0.81953377 0.83753842 4289235830
-3.0266933 -0.81100035 0.83960903 4289235830
-3.0257704 -0.79944324 0.83857375 4289235830
-3.015456 -0.78546762 0.83495027 4289235830
-3.0181792 -0.77493751 0.83495027 4289235830
-3.0188599 -0.76445037 0.83443266 4289235830
-3.0158868 -0.75250471 0.83287972 4289235830
-3.0221174 -0.74342233 0.833915 4289235830
-2.9727399 -0.70930278 0.81890345 4289235830
-2.9940045 -0.70334029 0.82407987 4289235830
-2.9889126 -0.69114393 0.82200933 4289235830
-3.002609 -0.68327832 0.82511514 4289235830
-3.0068607 -0.67321581 0.82563275 4289235830
-3.0356054 -0.66853195 0.83287972 4289235830
