# .PCD v0.7 - Point Cloud Data file format
VERSION 0.7
FIELDS x y z rgb
SIZE 4 4 4 4
TYPE F F F U
COUNT 1 1 1 1
WIDTH 207
HEIGHT 1
VIEWPOINT 0 0 0 1 0 0 0
POINTS 207
DATA ascii
3.0335851 -0.27340886 -0.703197 4286049647
3.0307214 -0.28328571 -0.70274711 4286049647
3.020067 -0.29239541 -0.70049757 4286049647
3.0268371 -0.30318561 -0.70229721 4286049647
3.0140755 -0.31306949 -0.69959778 4286049647
3.002074 -0.33355358 -0.6973483 4286049647
2.9854627 -0.34173405 -0.69374907 4286049647
2.9784455 -0.35146809 -0.69239932 4286049647
2.9733946 -0.36087343 -0.69149953 4286049647
2.9663155 -0.37052569 -0.69014984 4286049647
2.943743 -0.37814665 -0.68520093 4286049647
2.9307456 -0.38740122 -0.68250149 4286049647
2.9139271 -0.39553213 -0.67890227 4286049647
3.182879 -0.098357841 -0.6189844 4286049647
3.1880007 -0.12079896 -0.62012929 4286049647
3.1571732 -0.15220222 -0.61440504 4286049647
3.1487799 -0.16281633 -0.6128785 4286049647
3.1240802 -0.18286879 -0.60829914 4286049647
3.0992186 -0.20313352 -0.60371965 4286049647
3.0789044 -0.21259815 -0.59990352 4286049647
3.0663953 -0.2224918 -0.59761381 4286049647
3.0608954 -0.24304795 -0.59685057 4286049647
3.032593 -0.25198904 -0.59150791 4286049647
3.0277371 -0.26276287 -0.59074467 4286049647
3.0150697 -0.27227062 -0.58845496 4286049647
3.0063317 -0.28153527 -0.58692849 4286049647
3.0014732 -0.29112402 -0.58616525 4286049647
2.9809568 -0.29911551 -0.58234906 4286049647
2.9681244 -0.30882025 -0.58005941 4286049647
2.9591644 -0.31885555 -0.57853287 4286049647
2.9580336 -0.32918301 -0.57853287 4286049647
2.945164 -0.33816281 -0.57624322 4286049647
2.9323282 -0.34654498 -0.57395351 4286049647
2.9155097 -0.35488084 -0.57090056 4286049647
2.9065244 -0.3635723 -0.56937408 4286049647
2.9032252 -0.37397197 -0.56899244 4286049647
2.899956 -0.38384631 -0.56861085 4286049647
3.2949286 -0 -0.52186543 4286049647
3.229259 -0.055803139 -0.51154077 4286049647
3.1830814 -0.088355534 -0.50434476 4286049647
3.138576 -0.11947475 -0.49746165 4286049647
3.1218784 -0.1406717 -0.4949587 4286049647
3.1055839 -0.15080176 -0.49245578 4286049647
3.072928 -0.17018938 -0.48744985 4286049647
3.0683713 -0.18068261 -0.48682413 4286049647
3.0519493 -0.19040811 -0.48432118 4286049647
3.0446339 -0.21129963 -0.48338255 4286049647
3.0183041 -0.21953195 -0.47931525 4286049647
3.0076711 -0.22931561 -0.47775093 4286049647
3.0048833 -0.2396559 -0.47743803 4286049647
2.9981227 -0.24965167 -0.47649944 4286049647
2.9814441 -0.2592696 -0.47399649 4286049647
2.9627676 -0.26859024 -0.47118065 4286049647
2.9520273 -0.2774893 -0.46961632 4286049647
2.9373283 -0.28593734 -0.46742624 4286049647
2.9363639 -0.29567629 -0.46742624 4286049647
2.9313312 -0.30602643 -0.46680051 4286049647
2.9085865 -0.3144328 -0.46335894 4286049647
2.9035451 -0.32414544 -0.46273321 4286049647
2.892642 -0.33264378 -0.46116886 4286049647
2.8895013 -0.34250638 -0.46085599 4286049647
2.8765848 -0.35065231 -0.4589788 4286049647
3.2079091 -0.0011197716 -0.39388174 4286049647
3.1736696 -0.055950694 -0.3897382 4286049647
3.1332233 -0.088066138 -0.38486344 4286049647
3.1126935 -0.1092416 -0.38242605 4286049647
3.1043797 -0.11925823 -0.38145107 4286049647
3.0618274 -0.13903676 -0.37633255 4286049647
3.0553753 -0.14943278 -0.37560135 4286049647
3.0409861 -0.15883914 -0.37389517 4286049647
3.0259321 -0.17924349 -0.37218902 4286049647
3.0034945 -0.18843757 -0.36950788 4286049647
2.998857 -0.19865815 -0.3690204 4286049647
2.9882441 -0.20843428 -0.3678017 4286049647
2.9875362 -0.21834248 -0.3678017 4286049647
2.9808183 -0.22831483 -0.3670705 4286049647
2.9602153 -0.23713331 -0.36463311 4286049647
2.9534349 -0.24696867 -0.36390188 4286049647
2.9426222 -0.25692853 -0.36268318 4286049647
2.9377534 -0.26683953 -0.36219573 4286049647
2.9328997 -0.27620775 -0.36170825 4286049647
2.9043076 -0.28323463 -0.35829589 4286049647
2.8994024 -0.29246563 -0.35780841 4286049647
2.9002323 -0.30380318 -0.35805216 4286049647
2.8892865 -0.31285653 -0.35683349 4286049647
2.9296179 0.38101128 -0.6820516 4293729787
2.9534824 0.36316553 -0.68700051 4293729787
2.974082 0.35516372 -0.69149953 4293729787
2.9675605 0.34388483 -0.68969995 4293729787
2.9764891 0.33439347 -0.69149953 4293729787
2.9989483 0.32632101 -0.6964485 4293729787
2.9981313 0.31564587 -0.69599855 4293729787
3.0089085 0.30616409 -0.69824809 4293729787
3.0138376 0.29604077 -0.69914788 4293729787
2.9060781 0.36712405 -0.56937408 4293729787
2.9202666 0.3482216 -0.57166374 4293729787
2.9214644 0.33802506 -0.57166374 4293729787
2.9304309 0.3286998 -0.57319027 4293729787
2.9393678 0.31931743 -0.57471669 4293729787
2.9443691 0.30946621 -0.57547992 4293729787
2.9532444 0.29998082 -0.57700646 4293729787
2.9738123 0.29158524 -0.58082259 4293729787
2.9865394 0.28231069 -0.58311236 4293729787
2.9952793 0.27312052 -0.58463877 4293729787
3.0001261 0.2630055 -0.58540201 4293729787
3.0166767 0.25384766 -0.58845496 4293729787
3.0331995 0.24457893 -0.59150791 4293729787
3.0544126 0.22483854 -0.5953241 4293729787
3.0669298 0.21499968 -0.59761381 4293729787
3.0794148 0.20507467 -0.59990352 4293729787
3.1082087 0.18520617 -0.60524619 4293729787
3.1186368 0.1749057 -0.60715425 4293729787
3.1472344 0.1544752 -0.61249691 4293729787
3.1737125 0.1341282 -0.61745793 4293729787
3.1726096 0.11190057 -0.61707634 4293729787
2.8984125 0.33433408 -0.46210748 4293729787
2.900676 0.3140898 -0.46210748 4293729787
2.9174716 0.30560961 -0.4646104 4293729787
2.9204862 0.29562208 -0.46492329 4293729787
2.9273982 0.28600273 -0.46586189 4293729787
2.9440639 0.2777786 -0.46836486 4293729787
2.9509175 0.26803547 -0.46930346 4293729787
2.9616742 0.25859296 -0.47086781 4293729787
2.966496 0.2485823 -0.47149354 4293729787
2.9771907 0.2390154 -0.4730579 4293729787
2.9858849 0.22922847 -0.47430936 4293729787
3.0043981 0.22010256 -0.4771252 4293729787
3.0189421 0.21057673 -0.47931525 4293729787
3.02163 0.20016713 -0.47962815 4293729787
3.0466168 0.18046899 -0.48338255 4293729787
3.0728683 0.17126143 -0.48744985 4293729787
3.0912013 0.16146354 -0.49026567 4293729787
3.104069 0.14095479 -0.49214289 4293729787
3.1203313 0.13077964 -0.49464583 4293729787
3.1527553 0.11009696 -0.49965176 4293729787
3.1813822 0.077750608 -0.5040319 4293729787
3.2215254 0.044985235 -0.51028925 4293729787
2.888551 0.28118953 -0.35634598 4293729787
2.9062142 0.2629523 -0.35829589 4293729787
2.9051368 0.25263336 -0.35805216 4293729787
2.9257829 0.24414374 -0.36048955 4293729787
2.9305749 0.23424493 -0.36097702 4293729787
2.9373128 0.22446686 -0.36170825 4293729787
2.9420381 0.21450168 -0.36219573 4293729787
2.9566309 0.205192 -0.36390188 4293729787
2.9771371 0.19617602 -0.36633927 4293729787
2.985729 0.18627776 -0.36731425 4293729787
2.9883428 0.17597038 -0.36755794 4293729787
2.9968669 0.16597776 -0.36853293 4293729787
3.01527 0.15644063 -0.37072656 4293729787
3.0440278 0.13716511 -0.37413892 4293729787
3.042505 0.12645541 -0.37389517 4293729787
3.0587971 0.11643905 -0.37584507 4293729787
3.0992179 0.096313521 -0.38071984 4293729787
3.1156912 0.075058505 -0.38266978 4293729787
3.163944 0.043075096 -0.3885195 4293729787
2.8779721 0.26394343 -0.77438658 4285165379
2.8585701 0.24205062 -0.76869255 4285165379
2.8478446 0.23113383 -0.76558679 4285165379
2.8532417 0.21153215 -0.76662207 4285165379
2.8424003 0.20075513 -0.76351619 4285165379
2.8495166 0.18127452 -0.76506913 4285165379
2.8507128 0.16137671 -0.76506913 4285165379
2.8503168 0.13142729 -0.76455152 4285165379
2.8492148 0.11194551 -0.76403385 4285165379
2.8466377 0.072056614 -0.76299858 4285165379
2.8359487 -0.0074245119 -0.75989276 4285165379
2.8484519 -0.076579332 -0.76351619 4285165379
2.8490558 -0.1159241 -0.76403385 4285165379
2.843827 -0.14555493 -0.76299858 4285165379
2.8524134 -0.16546813 -0.76558679 4285165379
2.8588998 -0.1858789 -0.76765728 4285165379
2.8478982 -0.20513912 -0.76506913 4285165379
2.856065 -0.22527876 -0.76765728 4285165379
2.8610375 -0.23572281 -0.76921022 4285165379
2.8534603 -0.2561706 -0.76765728 4285165379
2.856442 -0.26598981 -0.76869255 4285165379
2.8680713 -0.28627157 -0.7723161 4285165379
2.870846 -0.29717949 -0.77335137 4285165379
3.0070424 0.28530926 -0.6973483 4285165379
3.0099611 0.27498749 -0.69779819 4285165379
3.0176327 0.25445849 -0.69914788 4285165379
3.0068483 0.24298088 -0.6964485 4285165379
2.9999063 0.23188487 -0.69464886 4285165379
3.009228 0.21148239 -0.6964485 4285165379
3.0060592 0.20071647 -0.69554865 4285165379
3.0015512 0.17937657 -0.69419897 4285165379
3.0124602 0.15893221 -0.6964485 4285165379
2.9959521 0.1376171 -0.69239932 4285165379
3.0108619 0.10672026 -0.69554865 4285165379
2.9942811 0.074748091 -0.69149953 4285165379
3.0049334 0.01206282 -0.69374907 4285165379
3.0010467 -0.0089043118 -0.69284928 4285165379
2.9892247 -0.029217146 -0.69014984 4285165379
3.0093832 -0.092470706 -0.69509876 4285165379
3.0004833 -0.12313458 -0.69329917 4285165379
3.0092831 -0.14454623 -0.69554865 4285165379
3.0140667 -0.16534647 -0.69689834 4285165379
3.0147841 -0.18650477 -0.6973483 4285165379
3.0134084 -0.20754722 -0.6973483 4285165379
3.0119259 -0.22805388 -0.6973483 4285165379
3.0111115 -0.23856604 -0.6973483 4285165379
3.0180287 -0.24971811 -0.69914788 4285165379
3.181458 0.078865126 -0.61860281 4285165379
3.1861753 0.03447948 -0.61936599 4285165379
3.1824195 -0.0099978987 -0.61860281 4285165379
3.1762588 -0.042688426 -0.61745793 4285165379
