# .PCD v0.7 - Point Cloud Data file format
VERSION 0.7
FIELDS x y z intensity
SIZE 4 4 4 4
TYPE F F F F
COUNT 1 1 1 1
WIDTH 125
HEIGHT 1
VIEWPOINT 0 0 0 1 0 0 0
POINTS 125
DATA ascii
3.2932715 -0.0016718172 -0.56626761 100
3.2892075 -0.0020614711 -0.55713898 100
3.2851434 -0.0024511248 -0.54801035 100
3.2810795 -0.0028407788 -0.53888172 100
3.2770154 -0.0032304327 -0.52975309 100
3.2729514 -0.0036200867 -0.52062446 100
3.2688873 -0.0040097404 -0.51149589 100
3.2648232 -0.0043993946 -0.50236726 100
3.2607594 -0.0047890483 -0.49323863 100
3.2566953 -0.0051787021 -0.48411 100
3.2526312 -0.0055683558 -0.47498137 100
3.2485671 -0.00595801 -0.46585274 100
3.244503 -0.0063476637 -0.45672414 100
3.2404392 -0.0067373179 -0.44759551 100
3.2363751 -0.0071269716 -0.43846688 100
3.232311 -0.0075166258 -0.42933825 100
3.2282469 -0.0079062805 -0.42020962 100
3.2241828 -0.0082959337 -0.41108099 100
3.2201188 -0.0086855879 -0.40195236 100
3.2160549 -0.0090752421 -0.39282373 100
3.2119908 -0.0094648963 -0.3836951 100
3.2079268 -0.0098545505 -0.37456647 100
3.2038627 -0.010244205 -0.36543784 100
2.965054 -0.36709705 -0.71802801 100
2.970578 -0.36095586 -0.71549779 100
2.9761019 -0.35481471 -0.71296751 100
2.9816258 -0.34867352 -0.71043724 100
2.9871497 -0.34253234 -0.70790702 100
2.9926739 -0.33639115 -0.70537674 100
2.9981978 -0.33024999 -0.70284647 100
3.0037217 -0.32410881 -0.70031625 100
3.0092456 -0.31796762 -0.69778597 100
3.0147696 -0.31182647 -0.6952557 100
3.0202935 -0.30568528 -0.69272548 100
3.0258174 -0.2995441 -0.6901952 100
3.0313413 -0.29340294 -0.68766493 100
3.0368652 -0.28726175 -0.68513465 100
3.0423892 -0.28112057 -0.68260443 100
3.0479131 -0.27497938 -0.68007416 100
3.053437 -0.2688382 -0.67754388 100
3.0589609 -0.26269704 -0.67501366 100
3.0644851 -0.25655586 -0.67248338 100
3.070009 -0.25041467 -0.66995311 100
3.0755329 -0.24427348 -0.66742283 100
3.0810568 -0.23813231 -0.66489261 100
3.0865808 -0.23199113 -0.66236234 100
3.0921047 -0.22584994 -0.65983206 100
3.0976286 -0.21970877 -0.65730184 100
3.1031525 -0.21356758 -0.65477157 100
3.1086764 -0.20742641 -0.65224129 100
3.1142004 -0.20128524 -0.64971107 100
3.1197243 -0.19514407 -0.6471808 100
3.1252482 -0.1890029 -0.64465052 100
3.1307721 -0.18286173 -0.6421203 100
3.136296 -0.17672056 -0.63959002 100
3.14182 -0.17057939 -0.63705975 100
3.1473441 -0.16443822 -0.63452953 100
3.152868 -0.15829705 -0.63199925 100
3.158392 -0.15215588 -0.62946898 100
3.1639159 -0.14601471 -0.62693876 100
3.1694398 -0.13987353 -0.62440848 100
3.1749637 -0.13373236 -0.62187821 100
3.1804876 -0.12759119 -0.61934799 100
3.1860116 -0.12145001 -0.61681771 100
3.1915355 -0.11530884 -0.6142875 100
3.1970594 -0.10916767 -0.61175722 100
3.2025833 -0.1030265 -0.60922694 100
3.2081072 -0.096885331 -0.60669672 100
3.2136312 -0.09074416 -0.60416645 100
3.2191551 -0.084602989 -0.60163617 100
3.224679 -0.078461818 -0.59910595 100
3.2302029 -0.072320648 -0.59657568 100
3.2357268 -0.066179477 -0.5940454 100
3.2412508 -0.060038306 -0.59151518 100
3.2467747 -0.053897135 -0.58898491 100
3.2522986 -0.04775596 -0.58645463 100
3.2578225 -0.04161479 -0.58392441 100
3.2633467 -0.035473619 -0.58139414 100
3.2688706 -0.029332448 -0.57886386 100
3.2743945 -0.023191277 -0.57633364 100
3.2799184 -0.017050106 -0.57380337 100
3.2854424 -0.010908934 -0.57127309 100
3.194792 0.10751488 -0.61121672 100
3.189563 0.113279 -0.61352849 100
3.184334 0.11904311 -0.61584026 100
3.1791053 0.12480722 -0.61815196 100
3.1738763 0.13057134 -0.62046373 100
3.1686473 0.13633546 -0.6227755 100
3.1634183 0.14209957 -0.62508726 100
3.1581893 0.14786369 -0.62739903 100
3.1529603 0.1536278 -0.62971079 100
3.1477313 0.15939191 -0.63202256 100
3.1425023 0.16515604 -0.63433427 100
3.1372733 0.17092015 -0.63664603 100
3.1320446 0.17668426 -0.6389578 100
3.1268156 0.18244837 -0.64126956 100
3.1215866 0.1882125 -0.64358133 100
3.1163576 0.19397661 -0.6458931 100
3.1111286 0.19974074 -0.64820486 100
3.1058996 0.20550485 -0.65051663 100
3.1006706 0.21126896 -0.6528284 100
3.0954416 0.21703309 -0.6551401 100
3.0902126 0.2227972 -0.65745187 100
3.0849836 0.22856133 -0.65976363 100
3.0797546 0.23432544 -0.6620754 100
3.0745258 0.24008955 -0.66438717 100
3.0692968 0.24585368 -0.66669893 100
3.0640678 0.25161779 -0.6690107 100
3.0588388 0.25738192 -0.67132246 100
3.0536098 0.26314601 -0.67363417 100
3.0483809 0.26891011 -0.67594594 100
3.0431519 0.27467424 -0.6782577 100
3.0379229 0.28043833 -0.68056947 100
3.0326939 0.28620246 -0.68288124 100
3.0274651 0.29196656 -0.685193 100
3.0222361 0.29773068 -0.68750471 100
3.0170071 0.30349478 -0.68981647 100
3.0117781 0.30925888 -0.69212824 100
3.0065491 0.31502301 -0.69444001 100
3.0013201 0.3207871 -0.69675177 100
2.9960911 0.32655123 -0.69906354 100
2.9908621 0.33231533 -0.70137525 100
2.9856334 0.33807945 -0.70368701 100
2.9804044 0.34384355 -0.70599878 100
2.9751754 0.34960765 -0.70831054 100
