# .PCD v0.7 - Point Cloud Data file format
VERSION 0.7
FIELDS x y z intensity
SIZE 4 4 4 4
TYPE F F F F
COUNT 1 1 1 1
WIDTH 112
HEIGHT 1
VIEWPOINT 0 0 0 1 0 0 0
POINTS 112
DATA ascii
2.989239 -0.35246485 -0.70843428 100
2.9955733 -0.345287 -0.70554358 100
3.0019073 -0.33810911 -0.70265287 100
3.0082417 -0.33093125 -0.69976211 100
3.0145757 -0.32375336 -0.6968714 100
3.02091 -0.3165755 -0.69398069 100
3.0272441 -0.30939764 -0.69108999 100
3.0335784 -0.30221975 -0.68819928 100
3.0399125 -0.29504189 -0.68530858 100
3.0462468 -0.28786403 -0.68241781 100
3.0525808 -0.28068614 -0.6795271 100
3.0589151 -0.27350828 -0.6766364 100
3.0652492 -0.26633042 -0.67374569 100
3.0715835 -0.25915253 -0.67085499 100
3.0779176 -0.25197467 -0.66796422 100
3.0842519 -0.24479678 -0.66507351 100
3.0905859 -0.23761891 -0.66218281 100
3.0969203 -0.23044103 -0.6592921 100
3.1032543 -0.22326316 -0.6564014 100
3.1095886 -0.21608528 -0.65351063 100
3.1159227 -0.20890741 -0.65061992 100
3.122257 -0.20172954 -0.64772922 100
3.1285911 -0.19455166 -0.64483851 100
3.1349254 -0.18737379 -0.64194781 100
3.1412594 -0.18019591 -0.63905704 100
3.1475937 -0.17301804 -0.63616633 100
3.1539278 -0.16584018 -0.63327563 100
3.1602621 -0.1586623 -0.63038492 100
3.1665962 -0.15148444 -0.62749422 100
3.1729305 -0.14430659 -0.62460351 100
3.1792645 -0.13712873 -0.6217128 100
3.1855989 -0.12995085 -0.61882204 100
3.1919329 -0.12277299 -0.61593133 100
3.1993651 0.109061 -0.60925019 100
3.1928132 0.11608664 -0.61202747 100
3.1862614 0.12311227 -0.6148048 100
3.1797094 0.13013791 -0.61758208 100
3.1731577 0.13716353 -0.62035936 100
3.1666057 0.14418916 -0.6231367 100
3.160054 0.15121481 -0.62591398 100
3.153502 0.15824044 -0.62869126 100
3.1469502 0.16526607 -0.63146859 100
3.1403983 0.1722917 -0.63424587 100
3.1338463 0.17931734 -0.63702315 100
3.1272945 0.18634297 -0.63980049 100
3.1207426 0.1933686 -0.64257777 100
3.1141908 0.20039424 -0.64535505 100
3.1076388 0.20741987 -0.64813238 100
3.1010871 0.21444552 -0.65090966 100
3.0945351 0.22147115 -0.65368694 100
3.0879831 0.22849679 -0.65646428 100
3.0814314 0.23552242 -0.65924156 100
3.0748794 0.24254806 -0.6620189 100
3.0683277 0.24957369 -0.66479617 100
3.0617757 0.25659934 -0.66757345 100
3.0552237 0.26362497 -0.67035079 100
3.048672 0.27065063 -0.67312807 100
3.04212 0.27767625 -0.67590535 100
3.0355682 0.28470188 -0.67868268 100
3.0290163 0.29172751 -0.68145996 100
3.0224645 0.29875314 -0.68423724 100
3.0159125 0.30577877 -0.68701458 100
3.0093608 0.3128044 -0.68979186 100
3.0028088 0.31983003 -0.69256914 100
2.9962571 0.32685566 -0.69534642 100
2.9897051 0.33388129 -0.69812375 100
2.9831531 0.34090689 -0.70090103 100
2.9766014 0.34793252 -0.70367831 100
2.9700494 0.35495815 -0.70645565 100
3.26633 -0.0015716582 -0.49627236 100
3.2627654 -0.0017804155 -0.48900044 100
3.2592006 -0.001989173 -0.48172855 100
3.255636 -0.0021979304 -0.47445664 100
3.2520714 -0.0024066877 -0.46718475 100
3.2485065 -0.0026154453 -0.45991284 100
3.2449419 -0.0028242026 -0.45264095 100
3.2413774 -0.00303296 -0.44536904 100
3.2378125 -0.0032417173 -0.43809715 100
3.2342479 -0.0034504747 -0.43082523 100
3.2306831 -0.0036592323 -0.42355335 100
3.2271185 -0.0038679896 -0.41628146 100
3.2235539 -0.0040767468 -0.40900955 100
3.2199891 -0.0042855046 -0.40173763 100
3.2164245 -0.0044942619 -0.39446574 100
3.2128599 -0.0047030193 -0.38719383 100
3.209295 -0.0049117771 -0.37992194 100
3.2057304 -0.0051205344 -0.37265003 100
3.2021658 -0.0053292923 -0.36537811 100
3.198601 -0.0055380496 -0.35810623 100
3.1950364 -0.005746807 -0.35083431 100
3.1914718 -0.0059555648 -0.34356239 100
3.187907 -0.0061643221 -0.33629051 100
3.1843424 -0.00637308 -0.32901859 100
3.1807775 -0.0065818373 -0.32174668 100
3.177213 -0.0067905947 -0.31447479 100
3.1736484 -0.006999352 -0.30720288 100
3.1700835 -0.0072081094 -0.29993099 100
3.1665189 -0.0074168663 -0.2926591 100
3.1629543 -0.0076256236 -0.28538722 100
3.1593895 -0.0078343805 -0.2781153 100
3.1558249 -0.0080431383 -0.27084342 100
3.1522603 -0.0082518952 -0.26357153 100
3.1486955 -0.0084606521 -0.25629964 100
3.1451309 -0.0086694099 -0.24902773 100
3.1415663 -0.0088781668 -0.24175584 100
3.1380014 -0.0090869246 -0.23448394 100
3.1344368 -0.0092956815 -0.22721206 100
3.1308722 -0.0095044384 -0.21994016 100
3.1273074 -0.0097131962 -0.21266827 100
3.1237428 -0.0099219531 -0.20539637 100
3.1201782 -0.01013071 -0.19812448 100
3.1166134 -0.010339468 -0.19085258 100
