# .PCD v0.7 - Point Cloud Data file format
VERSION 0.7
FIELDS x y z intensity
SIZE 4 4 4 4
TYPE F F F F
COUNT 1 1 1 1
WIDTH 149
HEIGHT 1
VIEWPOINT 0 0 0 1 0 0 0
POINTS 149
DATA ascii
2.9743845 -0.36679998 -0.71558845 100
2.9798441 -0.3605991 -0.71308535 100
2.9853036 -0.35439819 -0.71058226 100
2.9907632 -0.34819728 -0.70807916 100
2.9962227 -0.3419964 -0.70557606 100
3.0016823 -0.33579549 -0.70307297 100
3.0071421 -0.32959458 -0.70056987 100
3.0126016 -0.3233937 -0.69806677 100
3.0180612 -0.31719279 -0.69556367 100
3.0235207 -0.31099188 -0.69306058 100
3.0289803 -0.304791 -0.69055754 100
3.0344398 -0.29859009 -0.68805444 100
3.0398993 -0.29238918 -0.68555135 100
3.0453589 -0.2861883 -0.68304825 100
3.0508184 -0.27998739 -0.68054515 100
3.0562782 -0.27378649 -0.67804205 100
3.0617378 -0.26758558 -0.67553896 100
3.0671973 -0.26138467 -0.67303586 100
3.0726569 -0.25518379 -0.67053276 100
3.0781164 -0.24898286 -0.66802967 100
3.083576 -0.24278197 -0.66552657 100
3.0890355 -0.23658106 -0.66302347 100
3.0944951 -0.23038016 -0.66052037 100
3.0999546 -0.22417925 -0.65801728 100
3.1054144 -0.21797834 -0.65551418 100
3.1108739 -0.21177745 -0.65301108 100
3.1163335 -0.20557655 -0.65050805 100
3.121793 -0.19937566 -0.64800495 100
3.1272526 -0.19317476 -0.64550185 100
3.1327121 -0.18697387 -0.64299875 100
3.1381717 -0.18077298 -0.64049566 100
3.1436312 -0.17457208 -0.63799256 100
3.1490908 -0.16837119 -0.63548946 100
3.1545503 -0.16217029 -0.63298637 100
3.1600099 -0.1559694 -0.63048333 100
3.1654694 -0.1497685 -0.62798023 100
3.1709292 -0.14356761 -0.62547714 100
3.1763887 -0.13736671 -0.62297404 100
3.1818483 -0.13116582 -0.62047094 100
3.1873078 -0.12496492 -0.61796784 100
3.1927674 -0.11876403 -0.61546475 100
3.1982269 -0.11256313 -0.61296165 100
3.2036865 -0.10636224 -0.61045861 100
3.209146 -0.10016134 -0.60795552 100
3.2146056 -0.093960449 -0.60545242 100
3.2200651 -0.087759562 -0.60294932 100
3.2255247 -0.081558667 -0.60044622 100
3.2309842 -0.075357772 -0.59794313 100
3.236444 -0.069156878 -0.59544003 100
3.2419035 -0.062955983 -0.59293693 100
3.2473631 -0.056755085 -0.59043384 100
3.2528226 -0.050554194 -0.5879308 100
3.2582822 -0.044353299 -0.5854277 100
3.2637417 -0.038152404 -0.5829246 100
3.2692013 -0.031951509 -0.58042151 100
3.2746608 -0.025750615 -0.57791841 100
3.2801204 -0.01954972 -0.57541531 100
3.2855799 -0.013348825 -0.57291222 100
3.2910395 -0.0071479306 -0.57040912 100
3.2828636 0.00128381 -0.5323264 100
3.2792184 0.00099367881 -0.5249083 100
3.2755735 0.00070354756 -0.51749015 100
3.2719283 0.00041341627 -0.51007205 100
3.2682834 0.00012328502 -0.50265396 100
3.2646382 -0.00016684629 -0.49523586 100
3.2609932 -0.00045697761 -0.48781776 100
3.2573483 -0.00074710883 -0.48039967 100
3.2537031 -0.00103724 -0.47298157 100
3.2500582 -0.0013273712 -0.46556348 100
3.246413 -0.0016175024 -0.45814538 100
3.242768 -0.0019076336 -0.45072728 100
3.2391229 -0.0021977648 -0.44330919 100
3.2354779 -0.0024878962 -0.43589106 100
3.2318327 -0.0027780277 -0.42847297 100
3.2281878 -0.0030681591 -0.42105487 100
3.2245429 -0.0033582905 -0.41363674 100
3.2208977 -0.003648422 -0.40621865 100
3.2172527 -0.0039385534 -0.39880055 100
3.2136075 -0.0042286846 -0.39138246 100
3.2099626 -0.0045188162 -0.38396433 100
3.2063174 -0.0048089474 -0.37654623 100
3.2026725 -0.0050990791 -0.36912814 100
3.1990273 -0.0053892103 -0.36171004 100
3.1953824 -0.005679342 -0.35429192 100
3.1917372 -0.0059694732 -0.34687382 100
3.1880922 -0.0062596044 -0.33945572 100
3.1844473 -0.0065497351 -0.33203763 100
3.1808021 -0.0068398663 -0.32461953 100
3.1771572 -0.0071299975 -0.31720144 100
3.173512 -0.0074201282 -0.30978334 100
3.169867 -0.0077102594 -0.30236524 100
3.1662219 -0.0080003906 -0.29494718 100
3.1625769 -0.0082905209 -0.28752908 100
3.158932 -0.0085806521 -0.28011099 100
3.1552868 -0.0088707833 -0.27269289 100
3.1516418 -0.0091609145 -0.26527479 100
3.1479967 -0.0094510457 -0.2578567 100
3.1443517 -0.0097411759 -0.2504386 100
3.1407065 -0.010031307 -0.2430205 100
3.1370616 -0.010321438 -0.23560241 100
3.1334167 -0.01061157 -0.22818433 100
3.1297715 -0.0109017 -0.22076623 100
3.1261265 -0.011191831 -0.21334814 100
3.1224813 -0.011481962 -0.20593004 100
3.1188364 -0.011772093 -0.19851194 100
3.1151912 -0.012062225 -0.19109385 100
3.1984763 0.11178479 -0.60910892 100
3.1931815 0.11749862 -0.61134088 100
3.1878865 0.12321246 -0.61357284 100
3.1825914 0.12892631 -0.61580479 100
3.1772966 0.13464014 -0.61803675 100
3.1720016 0.14035399 -0.62026864 100
3.1667066 0.14606783 -0.6225006 100
3.1614118 0.15178166 -0.62473255 100
3.1561167 0.15749551 -0.62696451 100
3.1508219 0.16320935 -0.62919641 100
3.1455269 0.16892318 -0.63142836 100
3.1402318 0.17463703 -0.63366032 100
3.134937 0.18035087 -0.63589227 100
3.129642 0.18606471 -0.63812417 100
3.124347 0.19177856 -0.64035612 100
3.1190522 0.19749239 -0.64258808 100
3.1137571 0.20320624 -0.64482003 100
3.1084621 0.20892009 -0.64705199 100
3.1031673 0.21463393 -0.64928389 100
3.0978723 0.22034778 -0.65151584 100
3.0925772 0.22606161 -0.6537478 100
3.0872824 0.23177546 -0.65597975 100
3.0819874 0.2374893 -0.65821171 100
3.0766923 0.24320315 -0.6604436 100
3.0713973 0.248917 -0.66267556 100
3.0661025 0.25463083 -0.66490752 100
3.0608075 0.26034468 -0.66713947 100
3.0555127 0.2660585 -0.66937143 100
3.0502176 0.27177235 -0.67160332 100
3.0449226 0.27748618 -0.67383528 100
3.0396278 0.28320003 -0.67606723 100
3.0343328 0.28891385 -0.67829919 100
3.0290377 0.2946277 -0.68053108 100
3.0237429 0.30034152 -0.68276304 100
3.0184479 0.30605537 -0.684995 100
3.0131528 0.31176919 -0.68722689 100
3.007858 0.31748304 -0.68945885 100
3.002563 0.32319686 -0.6916908 100
2.9972682 0.32891071 -0.69392276 100
2.9919732 0.33462453 -0.69615465 100
2.9866781 0.34033838 -0.69838661 100
2.9813833 0.3460522 -0.70061857 100
2.9760883 0.35176602 -0.70285052 100
