# .PCD v0.7 - Point Cloud Data file format
VERSION 0.7
FIELDS x y z rgb
SIZE 4 4 4 4
TYPE F F F U
COUNT 1 1 1 1
WIDTH 1110
HEIGHT 1
VIEWPOINT 0 0 0 1 0 0 0
POINTS 1110
DATA ascii
6.0655012 1.4566382 -0.59910047 4278190335
6.0655012 1.4566382 -0.589109 4278190335
6.0655012 1.4566382 -0.57911754 4278190335
6.0655012 1.4566382 -0.56912607 4278190335
6.0655012 1.4566382 -0.5591346 4278190335
6.0655012 1.4566382 -0.54914314 4278190335
6.0655012 1.4566382 -0.53915167 4278190335
6.0655012 1.4566382 -0.5291602 4278190335
6.0655012 1.4566382 -0.51916873 4278190335
6.0655012 1.4566382 -0.50917727 4278190335
6.0655012 1.4566382 -0.4991858 4278190335
6.0655012 1.4566382 -0.48919433 4278190335
6.0655012 1.4566382 -0.47920287 4278190335
6.0655012 1.4566382 -0.4692114 4278190335
6.0655012 1.4566382 -0.45921999 4278190335
6.0655012 1.4566382 -0.44922847 4278190335
6.0655012 1.4566382 -0.439237 4278190335
6.0655012 1.4566382 -0.42924553 4278190335
6.0655012 1.4566382 -0.41925406 4278190335
6.0655012 1.4566382 -0.4092626 4278190335
6.0655012 1.4566382 -0.39927113 4278190335
6.0655012 1.4566382 -0.38927966 4278190335
6.0655012 1.4566382 -0.3792882 4278190335
6.0655012 1.4566382 -0.36929673 4278190335
6.0655012 1.4566382 -0.35930526 4278190335
6.0655012 1.4566382 -0.34931386 4278190335
6.0655012 1.4566382 -0.33932239 4278190335
6.0655012 1.4566382 -0.32933092 4278190335
6.0655012 1.4566382 -0.31933939 4278190335
6.0655012 1.4566382 -0.30934793 4278190335
6.0655012 1.4566382 -0.29935646 4278190335
6.0655012 1.4566382 -0.28936499 4278190335
6.0655012 1.4566382 -0.27937353 4278190335
6.0655012 1.4566382 -0.26938212 4278190335
6.0655012 1.4566382 -0.25939065 4278190335
6.0655012 1.4566382 -0.24939913 4278190335
6.0655012 1.4566382 -0.23940766 4278190335
6.0655012 1.4566382 -0.22941619 4278190335
6.0655012 1.4566382 -0.21942472 4278190335
6.0655012 1.4566382 -0.20943326 4278190335
6.0655012 1.4566382 -0.19944185 4278190335
6.0655012 1.4566382 -0.18945038 4278190335
6.0655012 1.4566382 -0.17945892 4278190335
6.0655012 1.4566382 -0.16946739 4278190335
6.0655012 1.4566382 -0.15947592 4278190335
6.0655012 1.4566382 -0.14948446 4278190335
6.0655012 1.4566382 -0.13949299 4278190335
6.0655012 1.4566382 -0.12950158 4278190335
6.0655012 1.4566382 -0.11951011 4278190335
6.0655012 1.4566382 -0.10951865 4278190335
6.0655012 1.4566382 -0.099527121 4278190335
6.0655012 1.4566382 -0.089535654 4278190335
6.0655012 1.4566382 -0.079544187 4278190335
6.0655012 1.4566382 -0.06955272 4278190335
6.0655012 1.4566382 -0.059561253 4278190335
6.0655012 1.4566382 -0.049569845 4278190335
6.0655012 1.4566382 -0.039578378 4278190335
6.0655012 1.4566382 -0.029586911 4278190335
6.0655012 1.4566382 -0.019595385 4278190335
6.0655012 1.4566382 -0.0096039772 4278190335
6.0655012 1.4566382 0.0003875494 4278190335
6.0655012 1.4566382 0.010378957 4278190335
6.0655012 1.4566382 0.020370483 4278190335
6.0655012 1.4566382 0.030361891 4278190335
6.0655012 1.4566382 0.040353417 4278190335
6.0655012 1.4566382 0.050344944 4278190335
6.0655012 1.4566382 0.060336351 4278190335
6.0655012 1.4566382 0.070327759 4278190335
6.0655012 1.4566382 0.080319285 4278190335
6.0655012 1.4566382 0.090310693 4278190335
6.0655012 1.4566382 0.10030222 4278190335
6.0655012 1.4566382 0.11029363 4278190335
6.0655012 1.4566382 0.12028503 4278190335
6.0655012 1.4566382 0.13027668 4278190335
6.0655012 1.4566382 0.14026809 4278190335
6.0655012 1.4566382 0.15025949 4278190335
6.0655012 1.4566382 0.16025102 4278190335
6.0655012 1.4566382 0.17024243 4278190335
6.0655012 1.4566382 0.18023396 4278190335
6.0655012 1.4566382 0.19022536 4278190335
6.0655012 1.4566382 0.20021689 4278190335
6.0655012 1.4566382 0.2102083 4278190335
6.0655012 1.4566382 0.22019982 4278190335
6.0655012 1.4566382 0.23019123 4278190335
6.0655012 1.4566382 0.24018276 4278190335
6.0655012 1.4566382 0.25017416 4278190335
6.0655012 1.4566382 0.26016569 4278190335
6.0655012 1.4566382 0.2701571 4278190335
6.0655012 1.4566382 0.28014863 4278190335
6.0655012 1.4566382 0.29014003 4278190335
6.0655012 1.4566382 0.30013156 4278190335
6.0655012 1.4566382 0.31012297 4278190335
6.0655012 1.4566382 0.32011449 4278190335
6.0655012 1.4566382 0.3301059 4278190335
6.0655012 1.4566382 0.34009731 4278190335
6.0655012 1.4566382 0.35008895 4278190335
6.0655012 1.4566382 0.36008024 4278190335
6.0655012 1.4566382 0.37007177 4278190335
6.0655012 1.4566382 0.38006318 4278190335
6.0655012 1.4566382 0.3900547 4278190335
6.0655012 1.4566382 0.40004623 4278190335
6.0655012 1.4566382 0.41003764 4278190335
6.0655012 1.4566382 0.42002916 4278190335
6.0655012 1.4566382 0.43002057 4278190335
6.0655012 1.4566382 0.4400121 4278190335
6.0655012 1.4566382 0.4500035 4278190335
6.0655012 1.4566382 0.45999503 4278190335
6.0655012 1.4566382 0.46998656 4278190335
6.0655012 1.4566382 0.47997797 4278190335
6.0655012 1.4566382 0.48996949 4278190335
6.0655012 1.4566382 0.49996078 4278190335
6.0655012 1.4566382 0.50995231 4278190335
6.0655012 1.4566382 0.51994371 4278190335
6.0655012 1.4566382 0.52993524 4278190335
6.0655012 1.4566382 0.53992677 4278190335
6.0655012 1.4566382 0.54991817 4278190335
6.0655012 1.4566382 0.5599097 4278190335
6.0655012 1.4566382 0.56990111 4278190335
6.0655012 1.4566382 0.57989264 4278190335
6.0655012 1.4566382 0.58988404 4278190335
6.0655012 1.4566382 0.59987557 4278190335
6.0655012 1.4566382 0.6098671 4278190335
6.0655012 1.4566382 0.6198585 4278190335
6.0655012 1.4566382 0.62985003 4278190335
6.0655012 1.4566382 0.63984132 4278190335
6.0655012 1.4566382 0.64983284 4278190335
6.0655012 1.4566382 0.65982425 4278190335
6.0655012 1.4566382 0.66981578 4278190335
6.0655012 1.4566382 0.67980719 4278190335
6.0655012 1.4566382 0.68979871 4278190335
6.0655012 1.4566382 0.69979024 4278190335
6.0655012 1.4566382 0.70978165 4278190335
6.0655012 1.4566382 0.71977317 4278190335
6.0655012 1.4566382 0.72976458 4278190335
6.0655012 1.4566382 0.73975611 4278190335
6.0655012 1.4566382 0.74974751 4278190335
6.0655012 1.4566382 0.75973904 4278190335
6.0655012 1.4566382 0.76973057 4278190335
6.0655012 1.4566382 0.77972186 4278190335
6.0655012 1.4566382 0.7897135 4278190335
6.0655012 1.4566382 0.79970479 4278190335
6.0655012 1.4566382 0.80969632 4278190335
6.0655012 1.4566382 0.81968772 4278190335
6.0655012 1.4566382 0.82967925 4278190335
6.0655012 1.4566382 0.83967078 4278190335
6.0655012 1.4566382 0.84966218 4278190335
6.0655012 1.4566382 0.85965371 4278190335
6.0655012 1.4566382 0.86964512 4278190335
6.0655012 1.4566382 0.87963665 4278190335
6.0655012 1.4566382 0.88962805 4278190335
6.0655012 1.4566382 0.89961958 4278190335
6.0655012 1.4566382 0.90961111 4278190335
6.0655012 1.4566382 0.91960251 4278190335
6.0655012 1.4566382 0.92959404 4278190335
6.0655012 1.4566382 0.93958533 4278190335
6.0655012 1.4566382 0.94957685 4278190335
6.0655012 1.4566382 0.95956826 4278190335
6.0655012 1.4566382 0.96955979 4278190335
6.0655012 1.4566382 0.9795512 4278190335
6.0655012 1.4566382 0.98954284 4278190335
6.0655012 1.4566382 0.99953425 4278190335
6.0655012 1.4566382 1.0095257 4278190335
6.0655012 1.4566382 1.0195171 4278190335
6.0655012 1.4566382 1.0295085 4278190335
6.0655012 1.4566382 1.0395001 4278190335
6.0655012 1.4566382 1.0494915 4278190335
6.0655012 1.4566382 1.0594829 4278190335
6.0655012 1.4566382 1.0694746 4278190335
6.0655012 1.4566382 1.079466 4278190335
6.0655012 1.4566382 1.0894574 4278190335
6.0655012 1.4566382 1.0994488 4278190335
6.0655012 1.4566382 1.1094404 4278190335
6.0655012 1.4566382 1.1194319 4278190335
6.0655012 1.4566382 1.1294233 4278190335
6.0655012 1.4566382 1.1394149 4278190335
6.0655012 1.4566382 1.1494061 4278190335
6.0655012 1.4566382 1.1593977 4278190335
6.0655012 1.4566382 1.1693891 4278190335
6.0655012 1.4566382 1.1793805 4278190335
6.0655012 1.4566382 1.1893719 4278190335
6.0655012 1.4566382 1.1993636 4278190335
6.0655012 1.4566382 1.209355 4278190335
6.0655012 1.4566382 1.2193464 4278190335
6.0655012 1.4566382 1.229338 4278190335
6.0655012 1.4566382 1.2393295 4278190335
6.0655012 1.4566382 1.2493209 4278190335
6.0655012 1.4566382 1.2593123 4278190335
6.0655012 1.4566382 1.2693039 4278190335
6.0655012 1.4566382 1.2792951 4278190335
6.0655012 1.4566382 1.2892867 4278190335
6.0655012 1.4566382 1.2992784 4278190335
6.0655012 1.4566382 1.3092695 4278190335
6.0655012 1.4566382 1.3192612 4278190335
6.0655012 1.4566382 1.3292526 4278190335
6.0655012 1.4566382 1.339244 4278190335
6.0655012 1.4566382 1.3492354 4278190335
6.0655012 1.4566382 1.3592271 4278190335
6.0655012 1.4566382 1.3692185 4278190335
6.0655012 1.4566382 1.3792099 4278190335
6.0655012 1.4566382 1.3892015 4278190335
6.0655012 1.4566382 1.3991929 4278190335
6.0655012 1.4566382 1.4091843 4278190335
6.0655012 1.4566382 1.4191757 4278190335
6.0655012 1.4566382 1.4291674 4278190335
6.0655012 1.4566382 1.4391588 4278190335
6.0655012 1.4566382 1.4491502 4278190335
6.0655012 1.4566382 1.4591416 4278190335
6.0655012 1.4566382 1.469133 4278190335
6.0655012 1.4566382 1.4791247 4278190335
6.0655012 1.4566382 1.4891161 4278190335
6.0655012 1.4566382 1.4991075 4278190335
6.0655012 1.4566382 1.5090991 4278190335
6.0655012 1.4566382 1.5190905 4278190335
6.0655012 1.4566382 1.5290819 4278190335
6.0655012 1.4566382 1.5390733 4278190335
6.0655012 1.4566382 1.549065 4278190335
6.0655012 1.4566382 1.5590564 4278190335
6.0655012 1.4566382 1.5690478 4278190335
6.0655012 1.4566382 1.5790392 4278190335
6.0655012 1.4566382 1.5890306 4278190335
6.0655012 1.4566382 1.5990223 4278190335
6.0655012 1.4566382 1.6090137 4278190335
6.0655012 1.4566382 1.6190051 4278190335
6.0655012 1.4566382 1.6289965 4278190335
6.0655012 1.4566382 1.6389881 4278190335
6.0655012 1.4566382 1.6489795 4278190335
6.0655012 1.4566382 1.658971 4278190335
6.0655012 1.4566382 1.6689626 4278190335
6.0655012 1.4566382 1.678954 4278190335
6.0655012 1.4566382 1.6889454 4278190335
6.0655012 1.4566382 1.6989368 4278190335
6.0655012 1.4566382 1.7089285 4278190335
6.0655012 1.4566382 1.7189196 4278190335
6.0655012 1.4566382 1.7289113 4278190335
8.8488693 1.4566382 -1.038725 4278190335
8.8488693 1.4566382 -1.0287335 4278190335
8.8488693 1.4566382 -1.0187421 4278190335
8.8488693 1.4566382 -1.0087507 4278190335
8.8488693 1.4566382 -0.99875915 4278190335
8.8488693 1.4566382 -0.98876768 4278190335
8.8488693 1.4566382 -0.97877622 4278190335
8.8488693 1.4566382 -0.96878475 4278190335
8.8488693 1.4566382 -0.95879328 4278190335
8.8488693 1.4566382 -0.94880182 4278190335
8.8488693 1.4566382 -0.93881035 4278190335
8.8488693 1.4566382 -0.92881888 4278190335
8.8488693 1.4566382 -0.91882741 4278190335
8.8488693 1.4566382 -0.90883595 4278190335
8.8488693 1.4566382 -0.89884448 4278190335
8.8488693 1.4566382 -0.88885301 4278190335
8.8488693 1.4566382 -0.87886155 4278190335
8.8488693 1.4566382 -0.86887008 4278190335
8.8488693 1.4566382 -0.85887861 4278190335
8.8488693 1.4566382 -0.84888715 4278190335
8.8488693 1.4566382 -0.83889568 4278190335
8.8488693 1.4566382 -0.82890421 4278190335
8.8488693 1.4566382 -0.81891274 4278190335
8.8488693 1.4566382 -0.80892128 4278190335
8.8488693 1.4566382 -0.79892981 4278190335
8.8488693 1.4566382 -0.78893834 4278190335
8.8488693 1.4566382 -0.77894688 4278190335
8.8488693 1.4566382 -0.76895541 4278190335
8.8488693 1.4566382 -0.75896394 4278190335
8.8488693 1.4566382 -0.74897254 4278190335
8.8488693 1.4566382 -0.73898101 4278190335
8.8488693 1.4566382 -0.72898954 4278190335
8.8488693 1.4566382 -0.71899807 4278190335
8.8488693 1.4566382 -0.70900661 4278190335
8.8488693 1.4566382 -0.69901514 4278190335
8.8488693 1.4566382 -0.68902373 4278190335
8.8488693 1.4566382 -0.67903221 4278190335
8.8488693 1.4566382 -0.66904074 4278190335
8.8488693 1.4566382 -0.65904927 4278190335
8.8488693 1.4566382 -0.64905787 4278190335
8.8488693 1.4566382 -0.63906634 4278190335
8.8488693 1.4566382 -0.62907487 4278190335
8.8488693 1.4566382 -0.6190834 4278190335
8.8488693 1.4566382 -0.609092 4278190335
8.8488693 1.4566382 -0.59910047 4278190335
8.8488693 1.4566382 -0.589109 4278190335
8.8488693 1.4566382 -0.57911754 4278190335
8.8488693 1.4566382 -0.56912607 4278190335
8.8488693 1.4566382 -0.5591346 4278190335
8.8488693 1.4566382 -0.54914314 4278190335
8.8488693 1.4566382 -0.53915167 4278190335
8.8488693 1.4566382 -0.5291602 4278190335
8.8488693 1.4566382 -0.51916873 4278190335
8.8488693 1.4566382 -0.50917727 4278190335
8.8488693 1.4566382 -0.4991858 4278190335
8.8488693 1.4566382 -0.48919433 4278190335
8.8488693 1.4566382 -0.47920287 4278190335
8.8488693 1.4566382 -0.4692114 4278190335
8.8488693 1.4566382 -0.45921999 4278190335
8.8488693 1.4566382 -0.44922847 4278190335
8.8488693 1.4566382 -0.439237 4278190335
8.8488693 1.4566382 -0.42924553 4278190335
8.8488693 1.4566382 -0.41925406 4278190335
8.8488693 1.4566382 -0.4092626 4278190335
8.8488693 1.4566382 -0.39927113 4278190335
8.8488693 1.4566382 -0.38927966 4278190335
8.8488693 1.4566382 -0.3792882 4278190335
8.8488693 1.4566382 -0.36929673 4278190335
8.8488693 1.4566382 -0.35930526 4278190335
8.8488693 1.4566382 -0.34931386 4278190335
8.8488693 1.4566382 -0.33932239 4278190335
8.8488693 1.4566382 -0.32933092 4278190335
8.8488693 1.4566382 -0.31933939 4278190335
8.8488693 1.4566382 -0.30934793 4278190335
8.8488693 1.4566382 -0.29935646 4278190335
8.8488693 1.4566382 -0.28936499 4278190335
8.8488693 1.4566382 -0.27937353 4278190335
8.8488693 1.4566382 -0.26938212 4278190335
8.8488693 1.4566382 -0.25939065 4278190335
8.8488693 1.4566382 -0.24939913 4278190335
8.8488693 1.4566382 -0.23940766 4278190335
8.8488693 1.4566382 -0.22941619 4278190335
8.8488693 1.4566382 -0.21942472 4278190335
8.8488693 1.4566382 -0.20943326 4278190335
8.8488693 1.4566382 -0.19944185 4278190335
8.8488693 1.4566382 -0.18945038 4278190335
8.8488693 1.4566382 -0.17945892 4278190335
8.8488693 1.4566382 -0.16946739 4278190335
8.8488693 1.4566382 -0.15947592 4278190335
8.8488693 1.4566382 -0.14948446 4278190335
8.8488693 1.4566382 -0.13949299 4278190335
8.8488693 1.4566382 -0.12950158 4278190335
8.8488693 1.4566382 -0.11951011 4278190335
8.8488693 1.4566382 -0.10951865 4278190335
8.8488693 1.4566382 -0.099527121 4278190335
8.8488693 1.4566382 -0.089535654 4278190335
8.8488693 1.4566382 -0.079544187 4278190335
8.8488693 1.4566382 -0.06955272 4278190335
8.8488693 1.4566382 -0.059561253 4278190335
8.8488693 1.4566382 -0.049569845 4278190335
8.8488693 1.4566382 -0.039578378 4278190335
8.8488693 1.4566382 -0.029586911 4278190335
8.8488693 1.4566382 -0.019595385 4278190335
8.8488693 1.4566382 -0.0096039772 4278190335
8.8488693 1.4566382 0.0003875494 4278190335
8.8488693 1.4566382 0.010378957 4278190335
8.8488693 1.4566382 0.020370483 4278190335
8.8488693 1.4566382 0.030361891 4278190335
8.8488693 1.4566382 0.040353417 4278190335
8.8488693 1.4566382 0.050344944 4278190335
8.8488693 1.4566382 0.060336351 4278190335
8.8488693 1.4566382 0.070327759 4278190335
8.8488693 1.4566382 0.080319285 4278190335
8.8488693 1.4566382 0.090310693 4278190335
8.8488693 1.4566382 0.10030222 4278190335
8.8488693 1.4566382 0.11029363 4278190335
8.8488693 1.4566382 0.12028503 4278190335
8.8488693 1.4566382 0.13027668 4278190335
8.8488693 1.4566382 0.14026809 4278190335
8.8488693 1.4566382 0.15025949 4278190335
8.8488693 1.4566382 0.16025102 4278190335
8.8488693 1.4566382 0.17024243 4278190335
8.8488693 1.4566382 0.18023396 4278190335
8.8488693 1.4566382 0.19022536 4278190335
8.8488693 1.4566382 0.20021689 4278190335
8.8488693 1.4566382 0.2102083 4278190335
8.8488693 1.4566382 0.22019982 4278190335
8.8488693 1.4566382 0.23019123 4278190335
8.8488693 1.4566382 0.24018276 4278190335
8.8488693 1.4566382 0.25017416 4278190335
8.8488693 1.4566382 0.26016569 4278190335
8.8488693 1.4566382 0.2701571 4278190335
8.8488693 1.4566382 0.28014863 4278190335
8.8488693 1.4566382 0.29014003 4278190335
8.8488693 1.4566382 0.30013156 4278190335
8.8488693 1.4566382 0.31012297 4278190335
8.8488693 1.4566382 0.32011449 4278190335
8.8488693 1.4566382 0.3301059 4278190335
8.8488693 1.4566382 0.34009731 4278190335
8.8488693 1.4566382 0.35008895 4278190335
8.8488693 1.4566382 0.36008024 4278190335
8.8488693 1.4566382 0.37007177 4278190335
8.8488693 1.4566382 0.38006318 4278190335
8.8488693 1.4566382 0.3900547 4278190335
8.8488693 1.4566382 0.40004623 4278190335
8.8488693 1.4566382 0.41003764 4278190335
8.8488693 1.4566382 0.42002916 4278190335
8.8488693 1.4566382 0.43002057 4278190335
8.8488693 1.4566382 0.4400121 4278190335
8.8488693 1.4566382 0.4500035 4278190335
8.8488693 1.4566382 0.45999503 4278190335
8.8488693 1.4566382 0.46998656 4278190335
8.8488693 1.4566382 0.47997797 4278190335
8.8488693 1.4566382 0.48996949 4278190335
8.8488693 1.4566382 0.49996078 4278190335
8.8488693 1.4566382 0.50995231 4278190335
8.8488693 1.4566382 0.51994371 4278190335
8.8488693 1.4566382 0.52993524 4278190335
8.8488693 1.4566382 0.53992677 4278190335
8.8488693 1.4566382 0.54991817 4278190335
8.8488693 1.4566382 0.5599097 4278190335
8.8488693 1.4566382 0.56990111 4278190335
8.8488693 1.4566382 0.57989264 4278190335
8.8488693 1.4566382 0.58988404 4278190335
8.8488693 1.4566382 0.59987557 4278190335
8.8488693 1.4566382 0.6098671 4278190335
8.8488693 1.4566382 0.6198585 4278190335
8.8488693 1.4566382 0.62985003 4278190335
8.8488693 1.4566382 0.63984132 4278190335
8.8488693 1.4566382 0.64983284 4278190335
8.8488693 1.4566382 0.65982425 4278190335
8.8488693 1.4566382 0.66981578 4278190335
8.8488693 1.4566382 0.67980719 4278190335
8.8488693 1.4566382 0.68979871 4278190335
8.8488693 1.4566382 0.69979024 4278190335
8.8488693 1.4566382 0.70978165 4278190335
8.8488693 1.4566382 0.71977317 4278190335
8.8488693 1.4566382 0.72976458 4278190335
8.8488693 1.4566382 0.73975611 4278190335
8.8488693 1.4566382 0.74974751 4278190335
8.8488693 1.4566382 0.75973904 4278190335
8.8488693 1.4566382 0.76973057 4278190335
8.8488693 1.4566382 0.77972186 4278190335
8.8488693 1.4566382 0.7897135 4278190335
8.8488693 1.4566382 0.79970479 4278190335
8.8488693 1.4566382 0.80969632 4278190335
8.8488693 1.4566382 0.81968772 4278190335
8.8488693 1.4566382 0.82967925 4278190335
8.8488693 1.4566382 0.83967078 4278190335
8.8488693 1.4566382 0.84966218 4278190335
8.8488693 1.4566382 0.85965371 4278190335
8.8488693 1.4566382 0.86964512 4278190335
8.8488693 1.4566382 0.87963665 4278190335
8.8488693 1.4566382 0.88962805 4278190335
8.8488693 1.4566382 0.89961958 4278190335
8.8488693 1.4566382 0.90961111 4278190335
8.8488693 1.4566382 0.91960251 4278190335
8.8488693 1.4566382 0.92959404 4278190335
8.8488693 1.4566382 0.93958533 4278190335
8.8488693 1.4566382 0.94957685 4278190335
8.8488693 1.4566382 0.95956826 4278190335
8.8488693 1.4566382 0.96955979 4278190335
8.8488693 1.4566382 0.9795512 4278190335
8.8488693 1.4566382 0.98954284 4278190335
8.8488693 1.4566382 0.99953425 4278190335
8.8488693 1.4566382 1.0095257 4278190335
8.8488693 1.4566382 1.0195171 4278190335
8.8488693 1.4566382 1.0295085 4278190335
8.8488693 1.4566382 1.0395001 4278190335
8.8488693 1.4566382 1.0494915 4278190335
8.8488693 1.4566382 1.0594829 4278190335
8.8488693 1.4566382 1.0694746 4278190335
8.8488693 1.4566382 1.079466 4278190335
8.8488693 1.4566382 1.0894574 4278190335
8.8488693 1.4566382 1.0994488 4278190335
8.8488693 1.4566382 1.1094404 4278190335
8.8488693 1.4566382 1.1194319 4278190335
8.8488693 1.4566382 1.1294233 4278190335
8.8488693 1.4566382 1.1394149 4278190335
8.8488693 1.4566382 1.1494061 4278190335
8.8488693 1.4566382 1.1593977 4278190335
8.8488693 1.4566382 1.1693891 4278190335
8.8488693 1.4566382 1.1793805 4278190335
8.8488693 1.4566382 1.1893719 4278190335
8.8488693 1.4566382 1.1993636 4278190335
8.8488693 1.4566382 1.209355 4278190335
8.8488693 1.4566382 1.2193464 4278190335
8.8488693 1.4566382 1.229338 4278190335
8.8488693 1.4566382 1.2393295 4278190335
8.8488693 1.4566382 1.2493209 4278190335
8.8488693 1.4566382 1.2593123 4278190335
8.8488693 1.4566382 1.2693039 4278190335
8.8488693 1.4566382 1.2792951 4278190335
8.8488693 1.4566382 1.2892867 4278190335
8.8488693 1.4566382 1.2992784 4278190335
8.8488693 1.4566382 1.3092695 4278190335
8.8488693 1.4566382 1.3192612 4278190335
8.8488693 1.4566382 1.3292526 4278190335
8.8488693 1.4566382 1.339244 4278190335
8.8488693 1.4566382 1.3492354 4278190335
8.8488693 1.4566382 1.3592271 4278190335
8.8488693 1.4566382 1.3692185 4278190335
8.8488693 1.4566382 1.3792099 4278190335
8.8488693 1.4566382 1.3892015 4278190335
8.8488693 1.4566382 1.3991929 4278190335
8.8488693 1.4566382 1.4091843 4278190335
8.8488693 1.4566382 1.4191757 4278190335
8.8488693 1.4566382 1.4291674 4278190335
8.8488693 1.4566382 1.4391588 4278190335
8.8488693 1.4566382 1.4491502 4278190335
8.8488693 1.4566382 1.4591416 4278190335
8.8488693 1.4566382 1.469133 4278190335
8.8488693 1.4566382 1.4791247 4278190335
8.8488693 1.4566382 1.4891161 4278190335
8.8488693 1.4566382 1.4991075 4278190335
8.8488693 1.4566382 1.5090991 4278190335
8.8488693 1.4566382 1.5190905 4278190335
8.8488693 1.4566382 1.5290819 4278190335
8.8488693 1.4566382 1.5390733 4278190335
8.8488693 1.4566382 1.549065 4278190335
8.8488693 1.4566382 1.5590564 4278190335
8.8488693 1.4566382 1.5690478 4278190335
8.8488693 1.4566382 1.5790392 4278190335
8.8488693 1.4566382 1.5890306 4278190335
8.8488693 1.4566382 1.5990223 4278190335
8.8488693 1.4566382 1.6090137 4278190335
8.8488693 1.4566382 1.6190051 4278190335
8.8488693 1.4566382 1.6289965 4278190335
8.8488693 1.4566382 1.6389881 4278190335
8.8488693 1.4566382 1.6489795 4278190335
8.8488693 1.4566382 1.658971 4278190335
8.8488693 1.4566382 1.6689626 4278190335
8.8488693 1.4566382 1.678954 4278190335
8.8488693 1.4566382 1.6889454 4278190335
8.8488693 1.4566382 1.6989368 4278190335
8.8488693 1.4566382 1.7089285 4278190335
8.8488693 1.4566382 1.7189196 4278190335
8.8488693 1.4566382 1.7289113 4278190335
5.9870138 -0.77332747 -0.95612758 4293880404
5.9842782 -0.7942214 -0.95612758 4293880404
5.9755974 -0.81430537 -0.95518899 4293880404
5.9707618 -0.83488554 -0.95487607 4293880404
5.9503617 -0.85216039 -0.95206028 4293880404
5.9453964 -0.87263888 -0.95174736 4293880404
5.9519253 -0.89589417 -0.95331174 4293880404
5.9448566 -0.91606313 -0.95268601 4293880404
5.939672 -0.93650138 -0.95237315 4293880404
5.9207654 -0.95471328 -0.94987023 4293880404
5.9097695 -0.97305816 -0.94861871 4293880404
5.9043894 -0.99335361 -0.94830585 4293880404
5.8968153 -1.0143179 -0.94768006 4293880404
5.8951845 -1.0352372 -0.94799298 4293880404
5.8876457 -1.0551118 -0.94736725 4293880404
5.8819838 -1.0753018 -0.94705439 4293880404
5.8665428 -1.0936551 -0.94517714 4293880404
5.8687062 -1.1142087 -0.94611579 4293880404
5.8686604 -1.135438 -0.94674152 4293880404
5.8510942 -1.1532425 -0.94455141 4293880404
5.8390813 -1.1731236 -0.94329995 4293880404
5.8349509 -1.1934987 -0.94329995 4293880404
5.8328948 -1.213244 -0.94361275 4293880404
5.8266916 -1.233188 -0.94329995 4293880404
5.8146272 -1.2518566 -0.94204849 4293880404
5.8025031 -1.2704557 -0.94079703 4293880404
5.79633 -1.2892616 -0.94048411 4293880404
5.7975745 -1.3107935 -0.9414227 4293880404
5.7888813 -1.3311485 -0.94079703 4293880404
5.7745814 -1.3491004 -0.93923265 4293880404
5.7563829 -1.3660563 -0.93704253 4293880404
5.7573409 -1.3875301 -0.93798119 4293880404
5.7603827 -1.4084911 -0.93923265 4293880404
5.743928 -1.4257348 -0.9373554 4293880404
5.74441 -1.4482265 -0.93829399 4293880404
5.7316656 -1.466311 -0.93704253 4293880404
5.7305961 -1.4863019 -0.93766832 4293880404
5.7311039 -1.5078042 -0.93860692 4293880404
5.723897 -1.5272908 -0.93829399 4293880404
5.7089972 -1.5446821 -0.93672973 4293880404
5.6959505 -1.5625105 -0.93547827 4293880404
5.6885581 -1.5818543 -0.93516535 4293880404
5.6887054 -1.6033092 -0.93610394 4293880404
5.6773758 -1.6215291 -0.93516535 4293880404
5.6697836 -1.6407878 -0.93485248 4293880404
5.6564393 -1.6583461 -0.93360102 4293880404
5.6449351 -1.6763936 -0.93266243 4293880404
5.6503992 -1.6995018 -0.93453962 4293880404
5.6482115 -1.7203661 -0.93516535 4293880404
5.6251836 -1.734832 -0.93234956 4293880404
5.6153221 -1.7532796 -0.93172377 4293880404
5.6167016 -1.7752513 -0.93297523 4293880404
5.6145473 -1.7950703 -0.93360102 4293880404
5.5962467 -1.8323791 -0.93266243 4293880404
5.5991921 -1.8550086 -0.93422669 4293880404
5.5589695 -1.8632421 -0.92859513 4293880404
5.5486898 -1.8813664 -0.92796934 4293880404
5.5439577 -1.9013648 -0.92828226 4293880404
5.5316882 -1.918763 -0.92734367 4293880404
5.517838 -1.9344817 -0.92609209 4293880404
5.5259466 -1.9590114 -0.92859513 4293880404
5.5224481 -1.9805855 -0.9292208 4293880404
5.5043588 -1.9958105 -0.92734367 4293880404
5.4803152 -2.0098498 -0.92452782 4293880404
5.4835901 -2.0295298 -0.92609209 4293880404
5.4779658 -2.050307 -0.92640501 4293880404
5.472261 -2.0710702 -0.92671788 4293880404
5.4561377 -2.0856788 -0.92515355 4293880404
5.437768 -2.1004407 -0.92327636 4293880404
5.4263525 -2.1189201 -0.92265058 4293880404
5.4299483 -2.1421983 -0.92452782 4293880404
5.4297776 -2.1640646 -0.92577928 4293880404
5.4111958 -2.1785786 -0.92390203 4293880404
5.4002819 -2.1950233 -0.92327636 4293880404
5.3838353 -2.2091696 -0.92171198 4293880404
5.3830013 -2.2319136 -0.92296344 4293880404
5.3769999 -2.2514534 -0.92327636 4293880404
5.362226 -2.266196 -0.92202479 4293880404
5.3506494 -2.283349 -0.92139912 4293880404
5.3321619 -2.2963917 -0.91952187 4293880404
5.3331718 -2.3189292 -0.92108625 4293880404
5.3192105 -2.3360775 -0.92014766 4293880404
5.3218589 -2.3594344 -0.92202479 4293880404
5.304575 -2.3739622 -0.92046052 4293880404
5.2836547 -2.3867717 -0.91827041 4293880404
5.2793055 -2.4059181 -0.91889614 4293880404
5.2730927 -2.4242368 -0.91920906 4293880404
5.2668171 -2.4425409 -0.91952187 4293880404
5.2448778 -2.4568803 -0.91733181 4293880404
5.2326975 -2.4734848 -0.91670603 4293880404
5.2293806 -2.4942868 -0.91764468 4293880404
5.2313223 -2.5176654 -0.91952187 4293880404
5.2207246 -2.5350475 -0.91920906 4293880404
5.1976523 -2.5463035 -0.91670603 4293880404
5.1851912 -2.562681 -0.91608036 4293880404
5.1815176 -2.5834093 -0.91701895 4293880404
5.1777625 -2.6041431 -0.9179576 4293880404
5.1615939 -2.6186259 -0.91670603 4293880404
5.1471462 -2.6339276 -0.91576743 4293880404
5.1313615 -2.6473589 -0.91451597 4293880404
5.1168323 -2.6625195 -0.91357738 4293880404
5.1127543 -2.6831179 -0.91451597 4293880404
5.1138334 -2.7064927 -0.91639322 4293880404
5.0938983 -2.7187459 -0.91451597 4293880404
5.1069903 -2.7486811 -0.91858327 4293880404
5.0599504 -2.769094 -0.91357738 4293880404
5.0710077 -2.798192 -0.91733181 4293880404
5.0543051 -2.8120351 -0.91608036 4293880404
5.03929 -2.8267612 -0.91514176 4293880404
5.0328302 -2.8462791 -0.91576743 4293880404
5.0160003 -2.859916 -0.91451597 4293880404
5.0025616 -2.8754389 -0.9138903 4293880404
4.9907851 -2.8918929 -0.91357738 4293880404
4.9840717 -2.9112897 -0.91420311 4293880404
4.9709849 -2.925797 -0.91357738 4293880404
4.9595561 -2.941258 -0.91326451 4293880404
4.9543462 -2.9615929 -0.91420311 4293880404
4.9321337 -2.9717324 -0.91201305 4293880404
4.9178324 -2.9877381 -0.91138726 4293880404
4.9169555 -3.0119336 -0.91326451 4293880404
4.901897 -3.02511 -0.91232592 4293880404
4.8968716 -3.0444775 -0.91326451 4293880404
4.8789854 -3.0582089 -0.91201305 4293880404
4.8666101 -3.0741661 -0.91170013 4293880404
4.8608489 -3.094317 -0.91263872 4293880404
4.853343 -3.1133993 -0.91326451 4293880404
4.8429923 -3.1294763 -0.91326451 4293880404
4.8187962 -3.1377394 -0.91076159 4293880404
4.8122172 -3.1586316 -0.91170013 4293880404
4.8044572 -3.1775899 -0.91232592 4293880404
4.7933359 -3.1943412 -0.91232592 4293880404
4.7837968 -3.2121549 -0.91263872 4293880404
4.7665734 -3.2235742 -0.91138726 4293880404
4.7536597 -3.2390809 -0.91107446 4293880404
4.7477789 -3.2581797 -0.91201305 4293880404
4.73418 -3.2744358 -0.91170013 4293880404
4.7275839 -3.2943289 -0.91263872 4293880404
4.7079716 -3.3051367 -0.91107446 4293880404
4.6942139 -3.3212292 -0.91076159 4293880404
4.6809831 -3.3364477 -0.91044867 4293880404
4.6763124 -3.3565595 -0.91170013 4293880404
4.6667566 -3.3732057 -0.91201305 4293880404
4.6495724 -3.3867984 -0.91107446 4293880404
4.6377215 -3.403008 -0.91107446 4293880404
4.6274033 -3.4203498 -0.91138726 4293880404
4.6201887 -3.4400206 -0.91232592 4293880404
4.6075492 -3.4569321 -0.91232592 4293880404
4.5923028 -3.4706118 -0.91170013 4293880404
4.5744805 -3.4810364 -0.91044867 4293880404
4.5744805 -3.4810364 -0.95612758 4278190335
4.5844278 -3.4810364 -0.95612758 4278190335
4.5943751 -3.4810364 -0.95612758 4278190335
4.6043229 -3.4810364 -0.95612758 4278190335
4.6142702 -3.4810364 -0.95612758 4278190335
4.6242175 -3.4810364 -0.95612758 4278190335
4.6341648 -3.4810364 -0.95612758 4278190335
4.6441126 -3.4810364 -0.95612758 4278190335
4.6540599 -3.4810364 -0.95612758 4278190335
4.6640072 -3.4810364 -0.95612758 4278190335
4.6739545 -3.4810364 -0.95612758 4278190335
4.6839023 -3.4810364 -0.95612758 4278190335
4.6938496 -3.4810364 -0.95612758 4278190335
4.7037969 -3.4810364 -0.95612758 4278190335
4.7137442 -3.4810364 -0.95612758 4278190335
4.7236919 -3.4810364 -0.95612758 4278190335
4.7336392 -3.4810364 -0.95612758 4278190335
4.7435865 -3.4810364 -0.95612758 4278190335
4.7535338 -3.4810364 -0.95612758 4278190335
4.7634816 -3.4810364 -0.95612758 4278190335
4.7734289 -3.4810364 -0.95612758 4278190335
4.7833762 -3.4810364 -0.95612758 4278190335
4.7933235 -3.4810364 -0.95612758 4278190335
4.8032713 -3.4810364 -0.95612758 4278190335
4.8132186 -3.4810364 -0.95612758 4278190335
4.8231659 -3.4810364 -0.95612758 4278190335
4.8331132 -3.4810364 -0.95612758 4278190335
4.843061 -3.4810364 -0.95612758 4278190335
4.8530083 -3.4810364 -0.95612758 4278190335
4.8629556 -3.4810364 -0.95612758 4278190335
4.8729029 -3.4810364 -0.95612758 4278190335
4.8828506 -3.4810364 -0.95612758 4278190335
4.8927979 -3.4810364 -0.95612758 4278190335
4.9027452 -3.4810364 -0.95612758 4278190335
4.9126925 -3.4810364 -0.95612758 4278190335
4.9226403 -3.4810364 -0.95612758 4278190335
4.9325876 -3.4810364 -0.95612758 4278190335
4.9425349 -3.4810364 -0.95612758 4278190335
4.9524822 -3.4810364 -0.95612758 4278190335
4.96243 -3.4810364 -0.95612758 4278190335
4.9723773 -3.4810364 -0.95612758 4278190335
4.9823246 -3.4810364 -0.95612758 4278190335
4.9922719 -3.4810364 -0.95612758 4278190335
5.0022197 -3.4810364 -0.95612758 4278190335
5.012167 -3.4810364 -0.95612758 4278190335
5.0221143 -3.4810364 -0.95612758 4278190335
5.0320616 -3.4810364 -0.95612758 4278190335
5.0420094 -3.4810364 -0.95612758 4278190335
5.0519567 -3.4810364 -0.95612758 4278190335
5.061904 -3.4810364 -0.95612758 4278190335
5.0718513 -3.4810364 -0.95612758 4278190335
5.081799 -3.4810364 -0.95612758 4278190335
5.0917463 -3.4810364 -0.95612758 4278190335
5.1016936 -3.4810364 -0.95612758 4278190335
5.1116409 -3.4810364 -0.95612758 4278190335
5.1215887 -3.4810364 -0.95612758 4278190335
5.131536 -3.4810364 -0.95612758 4278190335
5.1414833 -3.4810364 -0.95612758 4278190335
5.1514306 -3.4810364 -0.95612758 4278190335
5.1613779 -3.4810364 -0.95612758 4278190335
5.1713257 -3.4810364 -0.95612758 4278190335
5.181273 -3.4810364 -0.95612758 4278190335
5.1912203 -3.4810364 -0.95612758 4278190335
5.2011681 -3.4810364 -0.95612758 4278190335
5.2111154 -3.4810364 -0.95612758 4278190335
5.2210627 -3.4810364 -0.95612758 4278190335
5.23101 -3.4810364 -0.95612758 4278190335
5.2409573 -3.4810364 -0.95612758 4278190335
5.250905 -3.4810364 -0.95612758 4278190335
5.2608523 -3.4810364 -0.95612758 4278190335
5.2707996 -3.4810364 -0.95612758 4278190335
5.2807474 -3.4810364 -0.95612758 4278190335
5.2906947 -3.4810364 -0.95612758 4278190335
5.300642 -3.4810364 -0.95612758 4278190335
5.3105893 -3.4810364 -0.95612758 4278190335
5.3205366 -3.4810364 -0.95612758 4278190335
5.3304844 -3.4810364 -0.95612758 4278190335
5.3404317 -3.4810364 -0.95612758 4278190335
5.350379 -3.4810364 -0.95612758 4278190335
5.3603263 -3.4810364 -0.95612758 4278190335
5.3702741 -3.4810364 -0.95612758 4278190335
5.3802214 -3.4810364 -0.95612758 4278190335
5.3901687 -3.4810364 -0.95612758 4278190335
5.400116 -3.4810364 -0.95612758 4278190335
5.4100637 -3.4810364 -0.95612758 4278190335
5.420011 -3.4810364 -0.95612758 4278190335
5.4299583 -3.4810364 -0.95612758 4278190335
5.4399061 -3.4810364 -0.95612758 4278190335
5.4498534 -3.4810364 -0.95612758 4278190335
5.4598007 -3.4810364 -0.95612758 4278190335
5.469748 -3.4810364 -0.95612758 4278190335
5.4796953 -3.4810364 -0.95612758 4278190335
5.4896431 -3.4810364 -0.95612758 4278190335
5.4995904 -3.4810364 -0.95612758 4278190335
5.5095377 -3.4810364 -0.95612758 4278190335
5.5194855 -3.4810364 -0.95612758 4278190335
5.5294328 -3.4810364 -0.95612758 4278190335
5.5393801 -3.4810364 -0.95612758 4278190335
5.5493274 -3.4810364 -0.95612758 4278190335
5.5592747 -3.4810364 -0.95612758 4278190335
5.5692225 -3.4810364 -0.95612758 4278190335
5.5791698 -3.4810364 -0.95612758 4278190335
5.5891171 -3.4810364 -0.95612758 4278190335
5.5990644 -3.4810364 -0.95612758 4278190335
5.6090117 -3.4810364 -0.95612758 4278190335
5.6189594 -3.4810364 -0.95612758 4278190335
5.6289067 -3.4810364 -0.95612758 4278190335
5.638854 -3.4810364 -0.95612758 4278190335
5.6488018 -3.4810364 -0.95612758 4278190335
5.6587491 -3.4810364 -0.95612758 4278190335
5.6686964 -3.4810364 -0.95612758 4278190335
5.6786437 -3.4810364 -0.95612758 4278190335
5.6885915 -3.4810364 -0.95612758 4278190335
5.6985388 -3.4810364 -0.95612758 4278190335
5.7084861 -3.4810364 -0.95612758 4278190335
5.7184334 -3.4810364 -0.95612758 4278190335
5.7283812 -3.4810364 -0.95612758 4278190335
5.7383285 -3.4810364 -0.95612758 4278190335
5.7482758 -3.4810364 -0.95612758 4278190335
5.7582235 -3.4810364 -0.95612758 4278190335
5.7681704 -3.4810364 -0.95612758 4278190335
5.7781181 -3.4810364 -0.95612758 4278190335
5.7880654 -3.4810364 -0.95612758 4278190335
5.7980127 -3.4810364 -0.95612758 4278190335
5.8079605 -3.4810364 -0.95612758 4278190335
5.8179078 -3.4810364 -0.95612758 4278190335
5.8278551 -3.4810364 -0.95612758 4278190335
5.8378024 -3.4810364 -0.95612758 4278190335
5.8477497 -3.4810364 -0.95612758 4278190335
5.8576975 -3.4810364 -0.95612758 4278190335
5.8676448 -3.4810364 -0.95612758 4278190335
5.8775921 -3.4810364 -0.95612758 4278190335
5.8875399 -3.4810364 -0.95612758 4278190335
5.8974872 -3.4810364 -0.95612758 4278190335
5.9074345 -3.4810364 -0.95612758 4278190335
5.9173818 -3.4810364 -0.95612758 4278190335
5.9273291 -3.4810364 -0.95612758 4278190335
5.9372768 -3.4810364 -0.95612758 4278190335
5.9472241 -3.4810364 -0.95612758 4278190335
5.9571714 -3.4810364 -0.95612758 4278190335
5.9671192 -3.4810364 -0.95612758 4278190335
5.9770665 -3.4810364 -0.95612758 4278190335
5.9870138 -3.4810364 -0.95612758 4278190335
5.9870138 -3.4810364 -0.95612758 4278190335
5.9870138 -3.4710448 -0.95612758 4278190335
5.9870138 -3.4610534 -0.95612758 4278190335
5.9870138 -3.4510617 -0.95612758 4278190335
5.9870138 -3.4410703 -0.95612758 4278190335
5.9870138 -3.4310787 -0.95612758 4278190335
5.9870138 -3.4210873 -0.95612758 4278190335
5.9870138 -3.4110956 -0.95612758 4278190335
5.9870138 -3.401104 -0.95612758 4278190335
5.9870138 -3.3911126 -0.95612758 4278190335
5.9870138 -3.3811209 -0.95612758 4278190335
5.9870138 -3.3711295 -0.95612758 4278190335
5.9870138 -3.3611379 -0.95612758 4278190335
5.9870138 -3.3511462 -0.95612758 4278190335
5.9870138 -3.3411548 -0.95612758 4278190335
5.9870138 -3.3311632 -0.95612758 4278190335
5.9870138 -3.3211718 -0.95612758 4278190335
5.9870138 -3.3111801 -0.95612758 4278190335
5.9870138 -3.3011887 -0.95612758 4278190335
5.9870138 -3.2911971 -0.95612758 4278190335
5.9870138 -3.2812054 -0.95612758 4278190335
5.9870138 -3.271214 -0.95612758 4278190335
5.9870138 -3.2612224 -0.95612758 4278190335
5.9870138 -3.251231 -0.95612758 4278190335
5.9870138 -3.2412393 -0.95612758 4278190335
5.9870138 -3.2312479 -0.95612758 4278190335
5.9870138 -3.2212563 -0.95612758 4278190335
5.9870138 -3.2112646 -0.95612758 4278190335
5.9870138 -3.2012732 -0.95612758 4278190335
5.9870138 -3.1912816 -0.95612758 4278190335
5.9870138 -3.1812901 -0.95612758 4278190335
5.9870138 -3.1712985 -0.95612758 4278190335
5.9870138 -3.1613069 -0.95612758 4278190335
5.9870138 -3.1513155 -0.95612758 4278190335
5.9870138 -3.1413238 -0.95612758 4278190335
5.9870138 -3.1313324 -0.95612758 4278190335
5.9870138 -3.1213408 -0.95612758 4278190335
5.9870138 -3.1113491 -0.95612758 4278190335
5.9870138 -3.1013577 -0.95612758 4278190335
5.9870138 -3.0913663 -0.95612758 4278190335
5.9870138 -3.0813746 -0.95612758 4278190335
5.9870138 -3.071383 -0.95612758 4278190335
5.9870138 -3.0613916 -0.95612758 4278190335
5.9870138 -3.0513999 -0.95612758 4278190335
5.9870138 -3.0414085 -0.95612758 4278190335
5.9870138 -3.0314169 -0.95612758 4278190335
5.9870138 -3.0214252 -0.95612758 4278190335
5.9870138 -3.0114338 -0.95612758 4278190335
5.9870138 -3.0014422 -0.95612758 4278190335
5.9870138 -2.9914508 -0.95612758 4278190335
5.9870138 -2.9814591 -0.95612758 4278190335
5.9870138 -2.9714675 -0.95612758 4278190335
5.9870138 -2.9614761 -0.95612758 4278190335
5.9870138 -2.9514844 -0.95612758 4278190335
5.9870138 -2.941493 -0.95612758 4278190335
5.9870138 -2.9315014 -0.95612758 4278190335
5.9870138 -2.9215097 -0.95612758 4278190335
5.9870138 -2.9115183 -0.95612758 4278190335
5.9870138 -2.9015267 -0.95612758 4278190335
5.9870138 -2.8915353 -0.95612758 4278190335
5.9870138 -2.8815436 -0.95612758 4278190335
5.9870138 -2.8715522 -0.95612758 4278190335
5.9870138 -2.8615606 -0.95612758 4278190335
5.9870138 -2.8515692 -0.95612758 4278190335
5.9870138 -2.8415775 -0.95612758 4278190335
5.9870138 -2.8315859 -0.95612758 4278190335
5.9870138 -2.8215945 -0.95612758 4278190335
5.9870138 -2.8116028 -0.95612758 4278190335
5.9870138 -2.8016114 -0.95612758 4278190335
5.9870138 -2.7916198 -0.95612758 4278190335
5.9870138 -2.7816281 -0.95612758 4278190335
5.9870138 -2.7716367 -0.95612758 4278190335
5.9870138 -2.7616451 -0.95612758 4278190335
5.9870138 -2.7516537 -0.95612758 4278190335
5.9870138 -2.741662 -0.95612758 4278190335
5.9870138 -2.7316704 -0.95612758 4278190335
5.9870138 -2.721679 -0.95612758 4278190335
5.9870138 -2.7116876 -0.95612758 4278190335
5.9870138 -2.7016959 -0.95612758 4278190335
5.9870138 -2.6917043 -0.95612758 4278190335
5.9870138 -2.6817129 -0.95612758 4278190335
5.9870138 -2.6717212 -0.95612758 4278190335
5.9870138 -2.6617296 -0.95612758 4278190335
5.9870138 -2.6517382 -0.95612758 4278190335
5.9870138 -2.6417465 -0.95612758 4278190335
5.9870138 -2.6317551 -0.95612758 4278190335
5.9870138 -2.6217635 -0.95612758 4278190335
5.9870138 -2.6117721 -0.95612758 4278190335
5.9870138 -2.6017804 -0.95612758 4278190335
5.9870138 -2.5917888 -0.95612758 4278190335
5.9870138 -2.5817974 -0.95612758 4278190335
5.9870138 -2.571806 -0.95612758 4278190335
5.9870138 -2.5618143 -0.95612758 4278190335
5.9870138 -2.5518227 -0.95612758 4278190335
5.9870138 -2.541831 -0.95612758 4278190335
5.9870138 -2.5318396 -0.95612758 4278190335
5.9870138 -2.521848 -0.95612758 4278190335
5.9870138 -2.5118566 -0.95612758 4278190335
5.9870138 -2.5018649 -0.95612758 4278190335
5.9870138 -2.4918735 -0.95612758 4278190335
5.9870138 -2.4818819 -0.95612758 4278190335
5.9870138 -2.4718904 -0.95612758 4278190335
5.9870138 -2.4618988 -0.95612758 4278190335
5.9870138 -2.4519072 -0.95612758 4278190335
5.9870138 -2.4419155 -0.95612758 4278190335
5.9870138 -2.4319241 -0.95612758 4278190335
5.9870138 -2.4219327 -0.95612758 4278190335
5.9870138 -2.4119411 -0.95612758 4278190335
5.9870138 -2.4019494 -0.95612758 4278190335
5.9870138 -2.391958 -0.95612758 4278190335
5.9870138 -2.3819666 -0.95612758 4278190335
5.9870138 -2.3719749 -0.95612758 4278190335
5.9870138 -2.3619833 -0.95612758 4278190335
5.9870138 -2.3519917 -0.95612758 4278190335
5.9870138 -2.3420002 -0.95612758 4278190335
5.9870138 -2.3320086 -0.95612758 4278190335
5.9870138 -2.3220172 -0.95612758 4278190335
5.9870138 -2.3120255 -0.95612758 4278190335
5.9870138 -2.3020339 -0.95612758 4278190335
5.9870138 -2.2920425 -0.95612758 4278190335
5.9870138 -2.2820511 -0.95612758 4278190335
5.9870138 -2.2720594 -0.95612758 4278190335
5.9870138 -2.2620678 -0.95612758 4278190335
5.9870138 -2.2520764 -0.95612758 4278190335
5.9870138 -2.242085 -0.95612758 4278190335
5.9870138 -2.2320933 -0.95612758 4278190335
5.9870138 -2.2221017 -0.95612758 4278190335
5.9870138 -2.21211 -0.95612758 4278190335
5.9870138 -2.2021186 -0.95612758 4278190335
5.9870138 -2.192127 -0.95612758 4278190335
5.9870138 -2.1821356 -0.95612758 4278190335
5.9870138 -2.1721439 -0.95612758 4278190335
5.9870138 -2.1621523 -0.95612758 4278190335
5.9870138 -2.1521609 -0.95612758 4278190335
5.9870138 -2.1421695 -0.95612758 4278190335
5.9870138 -2.1321778 -0.95612758 4278190335
5.9870138 -2.1221862 -0.95612758 4278190335
5.9870138 -2.1121945 -0.95612758 4278190335
5.9870138 -2.1022034 -0.95612758 4278190335
5.9870138 -2.0922117 -0.95612758 4278190335
5.9870138 -2.0822201 -0.95612758 4278190335
5.9870138 -2.0722284 -0.95612758 4278190335
5.9870138 -2.0622368 -0.95612758 4278190335
5.9870138 -2.0522454 -0.95612758 4278190335
5.9870138 -2.042254 -0.95612758 4278190335
5.9870138 -2.0322623 -0.95612758 4278190335
5.9870138 -2.0222707 -0.95612758 4278190335
5.9870138 -2.0122793 -0.95612758 4278190335
5.9870138 -2.0022876 -0.95612758 4278190335
5.9870138 -1.9922962 -0.95612758 4278190335
5.9870138 -1.9823046 -0.95612758 4278190335
5.9870138 -1.9723132 -0.95612758 4278190335
5.9870138 -1.9623215 -0.95612758 4278190335
5.9870138 -1.9523299 -0.95612758 4278190335
5.9870138 -1.9423385 -0.95612758 4278190335
5.9870138 -1.9323468 -0.95612758 4278190335
5.9870138 -1.9223554 -0.95612758 4278190335
5.9870138 -1.9123638 -0.95612758 4278190335
5.9870138 -1.9023722 -0.95612758 4278190335
5.9870138 -1.8923807 -0.95612758 4278190335
5.9870138 -1.8823892 -0.95612758 4278190335
5.9870138 -1.8723975 -0.95612758 4278190335
5.9870138 -1.8624061 -0.95612758 4278190335
5.9870138 -1.8524145 -0.95612758 4278190335
5.9870138 -1.8424228 -0.95612758 4278190335
5.9870138 -1.8324314 -0.95612758 4278190335
5.9870138 -1.8224398 -0.95612758 4278190335
5.9870138 -1.8124484 -0.95612758 4278190335
5.9870138 -1.8024567 -0.95612758 4278190335
5.9870138 -1.7924653 -0.95612758 4278190335
5.9870138 -1.7824737 -0.95612758 4278190335
5.9870138 -1.7724822 -0.95612758 4278190335
5.9870138 -1.7624906 -0.95612758 4278190335
5.9870138 -1.7524991 -0.95612758 4278190335
5.9870138 -1.7425075 -0.95612758 4278190335
5.9870138 -1.7325159 -0.95612758 4278190335
5.9870138 -1.7225244 -0.95612758 4278190335
5.9870138 -1.7125328 -0.95612758 4278190335
5.9870138 -1.7025414 -0.95612758 4278190335
5.9870138 -1.6925497 -0.95612758 4278190335
5.9870138 -1.6825583 -0.95612758 4278190335
5.9870138 -1.6725667 -0.95612758 4278190335
5.9870138 -1.6625752 -0.95612758 4278190335
5.9870138 -1.6525836 -0.95612758 4278190335
5.9870138 -1.6425921 -0.95612758 4278190335
5.9870138 -1.6326005 -0.95612758 4278190335
5.9870138 -1.6226089 -0.95612758 4278190335
5.9870138 -1.6126174 -0.95612758 4278190335
5.9870138 -1.6026258 -0.95612758 4278190335
5.9870138 -1.5926343 -0.95612758 4278190335
5.9870138 -1.5826428 -0.95612758 4278190335
5.9870138 -1.5726513 -0.95612758 4278190335
5.9870138 -1.5626596 -0.95612758 4278190335
5.9870138 -1.5526682 -0.95612758 4278190335
5.9870138 -1.5426766 -0.95612758 4278190335
5.9870138 -1.5326852 -0.95612758 4278190335
5.9870138 -1.5226935 -0.95612758 4278190335
5.9870138 -1.5127019 -0.95612758 4278190335
5.9870138 -1.5027105 -0.95612758 4278190335
5.9870138 -1.4927188 -0.95612758 4278190335
5.9870138 -1.4827274 -0.95612758 4278190335
5.9870138 -1.4727356 -0.95612758 4278190335
5.9870138 -1.4627442 -0.95612758 4278190335
5.9870138 -1.4527526 -0.95612758 4278190335
5.9870138 -1.4427612 -0.95612758 4278190335
5.9870138 -1.4327695 -0.95612758 4278190335
5.9870138 -1.4227779 -0.95612758 4278190335
5.9870138 -1.4127865 -0.95612758 4278190335
5.9870138 -1.4027948 -0.95612758 4278190335
5.9870138 -1.3928034 -0.95612758 4278190335
5.9870138 -1.3828118 -0.95612758 4278190335
5.9870138 -1.3728204 -0.95612758 4278190335
5.9870138 -1.3628287 -0.95612758 4278190335
5.9870138 -1.3528373 -0.95612758 4278190335
5.9870138 -1.3428457 -0.95612758 4278190335
5.9870138 -1.3328543 -0.95612758 4278190335
5.9870138 -1.3228626 -0.95612758 4278190335
5.9870138 -1.312871 -0.95612758 4278190335
5.9870138 -1.3028796 -0.95612758 4278190335
5.9870138 -1.2928879 -0.95612758 4278190335
5.9870138 -1.2828965 -0.95612758 4278190335
5.9870138 -1.2729049 -0.95612758 4278190335
5.9870138 -1.2629135 -0.95612758 4278190335
5.9870138 -1.2529218 -0.95612758 4278190335
5.9870138 -1.2429302 -0.95612758 4278190335
5.9870138 -1.2329388 -0.95612758 4278190335
5.9870138 -1.2229471 -0.95612758 4278190335
5.9870138 -1.2129555 -0.95612758 4278190335
5.9870138 -1.2029641 -0.95612758 4278190335
5.9870138 -1.1929724 -0.95612758 4278190335
5.9870138 -1.1829808 -0.95612758 4278190335
5.9870138 -1.1729894 -0.95612758 4278190335
5.9870138 -1.1629977 -0.95612758 4278190335
5.9870138 -1.1530063 -0.95612758 4278190335
5.9870138 -1.1430147 -0.95612758 4278190335
5.9870138 -1.1330233 -0.95612758 4278190335
5.9870138 -1.1230316 -0.95612758 4278190335
5.9870138 -1.1130402 -0.95612758 4278190335
5.9870138 -1.1030486 -0.95612758 4278190335
5.9870138 -1.0930569 -0.95612758 4278190335
5.9870138 -1.0830655 -0.95612758 4278190335
5.9870138 -1.0730739 -0.95612758 4278190335
5.9870138 -1.0630825 -0.95612758 4278190335
5.9870138 -1.0530908 -0.95612758 4278190335
5.9870138 -1.0430994 -0.95612758 4278190335
5.9870138 -1.0331078 -0.95612758 4278190335
5.9870138 -1.0231164 -0.95612758 4278190335
5.9870138 -1.0131247 -0.95612758 4278190335
5.9870138 -1.0031333 -0.95612758 4278190335
5.9870138 -0.99314165 -0.95612758 4278190335
5.9870138 -0.98315001 -0.95612758 4278190335
5.9870138 -0.9731586 -0.95612758 4278190335
5.9870138 -0.96316695 -0.95612758 4278190335
5.9870138 -0.95317554 -0.95612758 4278190335
5.9870138 -0.9431839 -0.95612758 4278190335
5.9870138 -0.93319225 -0.95612758 4278190335
5.9870138 -0.92320085 -0.95612758 4278190335
5.9870138 -0.9132092 -0.95612758 4278190335
5.9870138 -0.90321755 -0.95612758 4278190335
5.9870138 -0.89322615 -0.95612758 4278190335
5.9870138 -0.8832345 -0.95612758 4278190335
5.9870138 -0.87324286 -0.95612758 4278190335
5.9870138 -0.86325145 -0.95612758 4278190335
5.9870138 -0.8532598 -0.95612758 4278190335
5.9870138 -0.84326839 -0.95612758 4278190335
5.9870138 -0.83327675 -0.95612758 4278190335
5.9870138 -0.82328534 -0.95612758 4278190335
5.9870138 -0.8132937 -0.95612758 4278190335
5.9870138 -0.80330229 -0.95612758 4278190335
5.9870138 -0.79331064 -0.95612758 4278190335
5.9870138 -0.78331923 -0.95612758 4278190335
5.9870138 -0.77332759 -0.95612758 4278190335
5.9870138 -0.77332747 -0.95612758 4278190335
5.9770665 -0.77332747 -0.95612758 4278190335
5.9671192 -0.77332747 -0.95612758 4278190335
5.9571714 -0.77332747 -0.95612758 4278190335
5.9472241 -0.77332747 -0.95612758 4278190335
5.9372768 -0.77332747 -0.95612758 4278190335
5.9273295 -0.77332747 -0.95612758 4278190335
5.9173818 -0.77332747 -0.95612758 4278190335
5.9074345 -0.77332747 -0.95612758 4278190335
5.8974872 -0.77332747 -0.95612758 4278190335
5.8875399 -0.77332747 -0.95612758 4278190335
5.8775921 -0.77332747 -0.95612758 4278190335
5.8676448 -0.77332747 -0.95612758 4278190335
5.8576975 -0.77332747 -0.95612758 4278190335
5.8477502 -0.77332747 -0.95612758 4278190335
5.8378024 -0.77332747 -0.95612758 4278190335
5.8278551 -0.77332747 -0.95612758 4278190335
5.8179078 -0.77332747 -0.95612758 4278190335
5.8079605 -0.77332747 -0.95612758 4278190335
5.7980127 -0.77332747 -0.95612758 4278190335
5.7880654 -0.77332747 -0.95612758 4278190335
5.7781181 -0.77332747 -0.95612758 4278190335
5.7681708 -0.77332747 -0.95612758 4278190335
5.7582231 -0.77332747 -0.95612758 4278190335
5.7482758 -0.77332747 -0.95612758 4278190335
5.7383285 -0.77332747 -0.95612758 4278190335
5.7283812 -0.77332747 -0.95612758 4278190335
5.7184334 -0.77332747 -0.95612758 4278190335
5.7084861 -0.77332747 -0.95612758 4278190335
5.6985388 -0.77332747 -0.95612758 4278190335
5.6885915 -0.77332747 -0.95612758 4278190335
5.6786437 -0.77332747 -0.95612758 4278190335
5.6686964 -0.77332747 -0.95612758 4278190335
5.6587491 -0.77332747 -0.95612758 4278190335
