# .PCD v0.7 - Point Cloud Data file format
VERSION 0.7
FIELDS x y z rgb
SIZE 4 4 4 4
TYPE F F F U
COUNT 1 1 1 1
WIDTH 1094
HEIGHT 1
VIEWPOINT 0 0 0 1 0 0 0
POINTS 1094
DATA ascii
0.21839134 -2.0103245 -0.39306656 4283037876
0.21711966 -2.0051391 -0.3194392 4283037876
0.21514104 -1.9933668 -0.24617608 4283037876
0.2140886 -1.9868656 -0.17483442 4283037876
0.2126804 -2.0133789 -0.54248476 4283037876
0.21158659 -2.0097363 -0.4665485 4283037876
0.20973064 -1.9954547 -0.39001361 4283037876
0.20970768 -2.0019553 -0.31881347 4283037876
0.20776929 -1.990157 -0.2456886 4283037876
0.20673896 -1.9836376 -0.17448579 4283037876
0.20408143 -1.998734 -0.53834367 4283037876
0.20456995 -2.0104628 -0.4665485 4283037876
0.20236731 -1.9922681 -0.3892504 4283037876
0.20232011 -1.9987446 -0.31818774 4283037876
0.20042282 -1.9869201 -0.24520114 4283037876
0.19710349 -1.9994342 -0.53834367 4283037876
0.19736032 -2.0092251 -0.46609858 4283037876
0.19502854 -1.9890544 -0.38848713 4283037876
0.19399758 -1.9856763 -0.31599763 4283037876
0.1934859 -1.9876076 -0.24520114 4283037876
0.19012266 -2.0001101 -0.53834367 4283037876
0.18814102 -1.986621 -0.46069977 4283037876
0.1880842 -1.9897231 -0.38848713 4283037876
0.18706527 -1.9863414 -0.31599763 4283037876
0.18654662 -1.9882709 -0.24520114 4283037876
0.18314001 -2.0007615 -0.53834367 4283037876
0.18120497 -1.9872657 -0.46069977 4283037876
0.18078193 -1.9864572 -0.38772389 4283037876
0.18013023 -1.9869822 -0.31599763 4283037876
0.17615487 -2.0013888 -0.53834367 4283037876
0.17460756 -1.9917686 -0.46159956 4283037876
0.17282011 -1.9753414 -0.38543418 4283037876
0.17319344 -1.9875989 -0.31599763 4283037876
0.16786629 -1.9865915 -0.53420252 4283037876
0.16765411 -1.992366 -0.46159956 4283037876
0.1655952 -1.9720199 -0.38467094 4283037876
0.16592488 -1.9842545 -0.3153719 4283037876
0.16030717 -1.9794629 -0.53213197 4283037876
0.16085477 -1.9948814 -0.46204948 4283037876
0.15871051 -1.972586 -0.38467094 4283037876
0.1580513 -1.9730073 -0.31349471 4283037876
0.15829439 -1.9847453 -0.24446991 4283037876
0.15384419 -1.9857886 -0.53368485 4283037876
0.15284163 -1.9818301 -0.45890018 4283037876
0.15182386 -1.9731278 -0.38467094 4283037876
0.146484 -1.9805337 -0.53213197 4283037876
0.14549334 -1.9765211 -0.45755047 4283037876
0.14522319 -1.9775618 -0.38543418 4283037876
0.13970549 -1.9829601 -0.53264964 4283037876
0.13886584 -1.9809048 -0.45845026 4283037876
0.13722368 -1.9623891 -0.38238126 4283037876
0.13213755 -1.973798 -0.53006142 4283037876
0.132339 -1.9872109 -0.45979998 4283037876
0.12475786 -1.9665356 -0.52799088 4283037876
0.12466503 -1.9759914 -0.45710054 4283037876
0.11823928 -1.972744 -0.52954376 4283037876
0.11707147 -1.9647427 -0.45440111 4283037876
0.11124349 -1.9712161 -0.52902615 4283037876
0.10999423 -1.961248 -0.45350131 4283037876
0.10436193 -1.9715923 -0.52902615 4283037876
0.10376146 -1.9732964 -0.45620075 4283037876
0.096620902 -1.954579 -0.52436739 4283037876
0.096681841 -1.9697539 -0.45530096 4283037876
0.089531571 -1.9491148 -0.52281445 4283037876
0.089627989 -1.9661857 -0.45440111 4283037876
0.08280921 -1.9513458 -0.52333212 4283037876
0.082354389 -1.9567516 -0.4521516 4283037876
0.076072581 -1.9535534 -0.52384979 4283037876
0.069252662 -1.9538071 -0.52384979 4283037876
0.061938819 -1.9385899 -0.51970869 4283037876
0.061613064 -1.9497156 -0.45035201 4283037876
0.055061541 -1.9349322 -0.51867342 4283037876
0.048306976 -1.9351127 -0.51867342 4283037876
0.041552056 -1.9352695 -0.51867342 4283037876
0.035204291 -1.9392596 -0.51970869 4283037876
2.9414048 -0.20361961 -0.68070191 4280871079
2.9397736 -0.20402227 -0.57280862 4280871079
2.9601121 -0.21529943 -0.68520093 4280871079
2.969058 -0.22637162 -0.68745047 4280871079
2.9187021 -0.22304468 -0.56899244 4280871079
2.9740772 -0.23719895 -0.6888001 4280871079
2.919863 -0.2333879 -0.56937408 4280871079
2.9181197 -0.23427373 -0.46367183 4280871079
2.9712894 -0.24741727 -0.68835026 4280871079
2.9346821 -0.24488479 -0.57242703 4280871079
2.9917634 -0.2596409 -0.69329917 4280871079
2.9494562 -0.25648791 -0.57547992 4280871079
2.9105093 -0.25412467 -0.46273321 4280871079
2.9986022 -0.27078354 -0.69509876 4280871079
2.9485431 -0.2667819 -0.57547992 4280871079
2.9155064 -0.26481882 -0.46367183 4280871079
3.0209212 -0.28343341 -0.70049757 4280871079
2.9515033 -0.27744004 -0.57624322 4280871079
2.9283307 -0.2762931 -0.46586189 4280871079
2.8765509 -0.27900732 -0.77438658 4280871079
3.0199134 -0.29397666 -0.70049757 4280871079
2.9700568 -0.28964663 -0.58005941 4280871079
2.9273484 -0.28651318 -0.46586189 4280871079
2.8717651 -0.28815901 -0.77335137 4280871079
3.0053496 -0.3026228 -0.6973483 4280871079
2.9768929 -0.30028221 -0.58158582 4280871079
2.9342434 -0.29701477 -0.46711335 4280871079
2.9012237 -0.294184 -0.35805216 4280871079
2.8611865 -0.29668429 -0.77076316 4280871079
3.0082061 -0.31299058 -0.69824809 4280871079
2.9954078 -0.3121874 -0.58540201 4280871079
2.9489596 -0.30838707 -0.46961632 4280871079
2.8863592 -0.30285925 -0.35634598 4280871079
2.8697374 -0.30769965 -0.77335137 4280871079
3.0090327 -0.32369769 -0.69869798 4280871079
2.9942997 -0.32264146 -0.58540201 4280871079
2.9576848 -0.31974056 -0.47118065 4280871079
2.9129138 -0.31592932 -0.35975835 4280871079
2.8456047 -0.31516311 -0.76713973 4280871079
3.0098212 -0.33441436 -0.69914788 4280871079
3.0009604 -0.33396012 -0.58692849 4280871079
2.9683299 -0.33137786 -0.4730579 4280871079
2.9216571 -0.3272 -0.36097702 4280871079
2.8405917 -0.32515123 -0.7661044 4280871079
3.0105717 -0.34514055 -0.69959778 4280871079
3.0231209 -0.34764841 -0.59150791 4280871079
2.9690578 -0.34248146 -0.47337076 4280871079
2.928385 -0.33830777 -0.36195198 4280871079
2.9014275 -0.33621976 -0.25554064 4280871079
2.8451951 -0.33574399 -0.76765728 4280871079
2.9996104 -0.35502729 -0.6973483 4280871079
3.0335865 -0.35958549 -0.59379762 4280871079
2.9835365 -0.35470897 -0.47587368 4280871079
2.948808 -0.35162404 -0.36463311 4280871079
2.9061711 -0.34705436 -0.25606358 4280871079
2.842088 -0.34544045 -0.76713973 4280871079
2.9945476 -0.36450148 -0.6964485 4280871079
3.0479033 -0.37207571 -0.59685057 4280871079
2.9901872 -0.36555964 -0.4771252 4280871079
2.9397445 -0.36043441 -0.36365816 4280871079
2.9207621 -0.35914195 -0.25745806 4280871079
2.8485944 -0.35582104 -0.76921022 4280871079
2.9893899 -0.37446773 -0.69554865 4280871079
3.0466526 -0.38218087 -0.59685057 4280871079
3.0045724 -0.37796763 -0.47962815 4280871079
2.9522545 -0.37243304 -0.36536431 4280871079
2.9096715 -0.36757696 -0.25658652 4280871079
2.8300905 -0.36354712 -0.76455152 4280871079
2.9958627 -0.38537338 -0.6973483 4280871079
3.0647712 -0.39532495 -0.60066676 4280871079
3.0228937 -0.39045951 -0.48275682 4280871079
2.9647839 -0.38400587 -0.3670705 4280871079
2.9162738 -0.3787578 -0.25728375 4280871079
2.8250384 -0.37242496 -0.76351619 4280871079
2.9925673 -0.39557314 -0.69689834 4280871079
3.0673361 -0.40600118 -0.60143 4280871079
3.021512 -0.40100905 -0.48275682 4280871079
2.9712963 -0.39539999 -0.36804545 4280871079
2.9248083 -0.39025274 -0.25815532 4280871079
2.8274837 -0.38329583 -0.76455152 4280871079
2.9834442 -0.40496829 -0.69509876 4280871079
3.0891709 -0.4204177 -0.60600942 4280871079
3.029808 -0.41341606 -0.48432118 4280871079
2.9816988 -0.40738162 -0.36950788 4280871079
2.9372461 -0.40235266 -0.25937548 4280871079
2.8299551 -0.39369559 -0.76558679 4280871079
2.9780798 -0.41536206 -0.69419897 4280871079
3.1071286 -0.43391371 -0.60982555 4280871079
3.0479097 -0.42672849 -0.48744985 4280871079
2.9841175 -0.41885921 -0.36999539 4280871079
2.957454 -0.41616946 -0.2612929 4280871079
2.8265805 -0.40379208 -0.76506913 4280871079
2.9766119 -0.42575493 -0.69419897 4280871079
3.1016304 -0.44474167 -0.60906237 4280871079
3.0639224 -0.44042626 -0.49026567 4280871079
2.9924617 -0.43068716 -0.37121406 4280871079
2.9618993 -0.42734393 -0.26181585 4280871079
2.9077113 -0.42056179 -0.1539724 4280871079
2.8194194 -0.41281655 -0.76351619 4280871079
2.9904561 -0.43892586 -0.69779819 4280871079
3.1155984 -0.4578492 -0.61211532 4280871079
3.0819092 -0.45399755 -0.49339435 4280871079
3.0085371 -0.44426209 -0.37340769 4280871079
2.9584186 -0.43738887 -0.26164153 4280871079
2.927958 -0.4339298 -0.1551238 4280871079
2.8141403 -0.42208257 -0.76248091 4280871079
2.9832025 -0.447972 -0.6964485 4280871079
3.1236882 -0.47018301 -0.61402339 4280871079
3.0842938 -0.46480381 -0.4940201 4280871079
3.0325639 -0.45809081 -0.3765763 4280871079
2.9746032 -0.45039749 -0.26321036 4280871079
2.9186041 -0.44243953 -0.15470509 4280871079
2.8108158 -0.43111944 -0.76196331 4280871079
2.9700642 -0.45660594 -0.69374907 4280871079
3.1337545 -0.48233095 -0.6163131 4280871079
3.0865569 -0.4761695 -0.49464583 4280871079
3.0387936 -0.46988702 -0.37755126 4280871079
2.9808884 -0.46199864 -0.26390758 4280871079
2.9288838 -0.45446211 -0.15533313 4280871079
2.8244841 -0.44381765 -0.7661044 4280871079
2.9588268 -0.46545643 -0.69149953 4280871079
3.1436009 -0.49564806 -0.61860281 4280871079
3.1082048 -0.49117914 -0.49840027 4280871079
3.0390954 -0.48080173 -0.37779501 4280871079
2.9989355 -0.4755213 -0.26565069 4280871079
2.9370611 -0.46676132 -0.15585649 4280871079
2.809566 -0.45152852 -0.76248091 4280871079
2.9609487 -0.47691768 -0.69239932 4280871079
3.1399138 -0.50630575 -0.61822122 4280871079
3.1181719 -0.50391668 -0.50027746 4280871079
3.0471966 -0.49299243 -0.37901369 4280871079
3.0110242 -0.48821884 -0.26687086 4280871079
2.9511852 -0.47957358 -0.15669388 4280871079
2.8080533 -0.46084285 -0.76248091 4280871079
2.9670427 -0.48799905 -0.69419897 4280871079
3.1382177 -0.51671529 -0.61822122 4280871079
3.1340249 -0.51714867 -0.5030933 4280871079
3.0729649 -0.50762409 -0.38242605 4280871079
3.0152855 -0.49917731 -0.2673938 4280871079
2.971252 -0.49295321 -0.15784526 4280871079
2.7988884 -0.4688755 -0.76041043 4280871079
2.9596424 -0.49686751 -0.69284928 4280871079
3.1326144 -0.52646834 -0.61745793 4280871079
3.1283967 -0.52688241 -0.50246757 4280871079
3.0927968 -0.52144188 -0.38510716 4280871079
3.021472 -0.51050133 -0.26809105 4280871079
2.9774778 -0.50413722 -0.15826395 4280871079
2.8011267 -0.47880536 -0.76144564 4280871079
2.9483747 -0.50503421 -0.69059974 4280871079
3.1347218 -0.53751725 -0.61822122 4280871079
3.1363666 -0.53892636 -0.5040319 4280871079
3.1008325 -0.53337765 -0.38632584 4280871079
3.0433235 -0.52457929 -0.27018279 4280871079
2.9816942 -0.515028 -0.15857796 4280871079
2.803159 -0.48973373 -0.76248091 4280871079
2.9465039 -0.51583719 -0.69059974 4280871079
3.1288626 -0.54832512 -0.61745793 4280871079
3.1518807 -0.55349308 -0.50684774 4280871079
3.1065817 -0.54665613 -0.38730082 4280871079
3.0570781 -0.53849518 -0.2715773 4280871079
2.9955215 -0.52873033 -0.15941535 4280871079
2.8071382 -0.50053298 -0.76403385 4280871079
2.9446855 -0.52611929 -0.69059974 4280871079
3.1153343 -0.55716974 -0.61516827 4280871079
3.1752069 -0.5690217 -0.51091504 4280871079
3.1066082 -0.55784756 -0.38754454 4280871079
3.0649846 -0.55092543 -0.27244884 4280871079
3.011348 -0.5423696 -0.16035739 4280871079
2.7882679 -0.50721687 -0.75937515 4280871079
2.9504995 -0.53779268 -0.69239932 4280871079
3.1133704 -0.56804091 -0.61516827 4280871079
3.194576 -0.58400929 -0.51435655 4280871079
3.1378365 -0.5747686 -0.39168811 4280871079
3.0767608 -0.56413615 -0.27366903 4280871079
3.0172937 -0.55432141 -0.16077606 4280871079
2.7883797 -0.51729906 -0.75989276 4280871079
2.9486043 -0.54808849 -0.69239932 4280871079
3.1113684 -0.57890511 -0.61516827 4280871079
3.1964016 -0.59588093 -0.51498228 4280871079
3.1533732 -0.5889985 -0.39388174 4280871079
3.0943573 -0.57853425 -0.27541214 4280871079
3.0506766 -0.57146966 -0.16266017 4280871079
3.0188212 -0.56659323 -0.053613789 4280871079
2.7922516 -0.52810621 -0.76144564 4280871079
2.9351852 -0.55620086 -0.68969995 4280871079
3.117044 -0.59122568 -0.61669469 4280871079
3.202065 -0.60851002 -0.5162338 4280871079
3.151298 -0.60000223 -0.39388174 4280871079
3.1216764 -0.59492701 -0.27802682 4280871079
3.0388541 -0.5802421 -0.16213681 4280871079
3.0011127 -0.57412159 -0.053334557 4280871079
2.7960818 -0.53894663 -0.76299858 4280871079
2.9332259 -0.56644315 -0.68969995 4280871079
3.1111064 -0.6013574 -0.61593145 4280871079
3.227072 -0.62494153 -0.52061397 4280871079
3.1511333 -0.61137682 -0.39412549 4280871079
3.0961106 -0.60126215 -0.27593508 4280871079
3.0211265 -0.58779478 -0.16129944 4280871079
2.9912393 -0.58306354 -0.053194933 4280871079
2.7903924 -0.54795897 -0.76196331 4280871079
2.9312308 -0.57667863 -0.68969995 4280871079
3.1012833 -0.61069632 -0.61440504 4280871079
3.217119 -0.634673 -0.51936251 4280871079
3.1489799 -0.62237257 -0.39412549 4280871079
3.0919316 -0.61221898 -0.27576074 4280871079
3.0190563 -0.59833682 -0.16129944 4280871079
2.7788939 -0.55628663 -0.75937515 4280871079
2.9368427 -0.58843839 -0.69149953 4280871079
3.0913246 -0.62051344 -0.6128785 4280871079
3.2050881 -0.64451295 -0.51779813 4280871079
3.1428962 -0.63257748 -0.39363801 4280871079
3.0682919 -0.61867613 -0.27384335 4280871079
3.0109696 -0.60821182 -0.16098543 4280871079
2.7750423 -0.56559753 -0.75885749 4280871079
2.9365757 -0.59958833 -0.69194949 4280871079
3.0968339 -0.63287288 -0.61440504 4280871079
3.1950779 -0.65411198 -0.51654667 4280871079
3.138612 -0.64369369 -0.39339426 4280871079
3.0700171 -0.63018399 -0.27419198 4280871079
3.0029595 -0.61751151 -0.1606714 4280871079
2.776834 -0.5760656 -0.75989276 4280871079
2.9250312 -0.60734224 -0.68969995 4280871079
3.102294 -0.64527816 -0.61593145 4280871079
3.1754858 -0.66108018 -0.51373082 4280871079
3.1111972 -0.64882958 -0.39022568 4280871079
3.0560968 -0.63845187 -0.27314609 4280871079
2.9813454 -0.62337857 -0.15962468 4280871079
2.7786891 -0.58606815 -0.76092798 4280871079
2.9190798 -0.61674303 -0.6888001 4280871079
3.0962958 -0.65474981 -0.61516827 4280871079
3.1596315 -0.66929525 -0.51154077 4280871079
3.0856113 -0.65474129 -0.38730082 4280871079
3.0442181 -0.64651322 -0.27227452 4280871079
2.9635229 -0.63045681 -0.15878731 4280871079
2.7841821 -0.59738517 -0.76299858 4280871079
2.9207199 -0.62774783 -0.68969995 4280871079
3.0901527 -0.66472816 -0.61440504 4280871079
3.1572762 -0.68032038 -0.51154077 4280871079
3.0891283 -0.6667645 -0.38803205 4280871079
3.0302582 -0.65461147 -0.27122867 4280871079
2.9613042 -0.64079762 -0.15878731 4280871079
2.7650928 -0.60339326 -0.75833982 4280871079
2.9223182 -0.63877147 -0.69059974 4280871079
3.0878136 -0.67551076 -0.61440504 4280871079
3.1394453 -0.68795443 -0.50903779 4280871079
3.086782 -0.67754358 -0.38803205 4280871079
3.0122712 -0.66229075 -0.26983419 4280871079
2.9590492 -0.65113062 -0.15878731 4280871079
2.7609768 -0.61310506 -0.75782222 4280871079
2.921973 -0.64939111 -0.69104964 4280871079
3.0814841 -0.68597043 -0.61364174 4280871079
3.1195502 -0.69558728 -0.50622195 4280871079
3.0766482 -0.68658477 -0.38705707 4280871079
3.0021632 -0.67106295 -0.26913694 4280871079
2.9488471 -0.66022623 -0.15836863 4280871079
2.7663574 -0.62444031 -0.75989276 4280871079
2.913871 -0.65880716 -0.68969995 4280871079
3.0867305 -0.69845587 -0.61516827 4280871079
3.1055443 -0.70385253 -0.50434476 4280871079
3.0586245 -0.69434106 -0.38510716 4280871079
2.9881454 -0.67888993 -0.26809105 4280871079
2.9231546 -0.66519755 -0.15711255 4280871079
2.7641609 -0.63409293 -0.75989276 4280871079
2.9058559 -0.66766524 -0.68835026 4280871079
3.0842736 -0.70922625 -0.61516827 4280871079
3.0915184 -0.71202844 -0.50246757 4280871079
3.0387735 -0.70099747 -0.38291353 4280871079
2.9779921 -0.6875236 -0.2673938 4280871079
2.9091394 -0.67269742 -0.15648453 4280871079
2.7713377 -0.64593035 -0.76248091 4280871079
2.9054053 -0.67824745 -0.6888001 4280871079
3.0779557 -0.71909475 -0.61440504 4280871079
3.0774736 -0.72011513 -0.50059032 4280871079
3.0227792 -0.70842981 -0.38120735 4280871079
2.9716947 -0.69700462 -0.2670452 4280871079
2.8951075 -0.68010753 -0.15585649 4280871079
2.7559071 -0.65248466 -0.75885749 4280871079
2.9106047 -0.6901837 -0.69059974 4280871079
3.0773368 -0.73028767 -0.61478662 4280871079
3.0634105 -0.72811252 -0.49871314 4280871079
3.012563 -0.71713817 -0.38023239 4280871079
2.9556763 -0.70414144 -0.265825 4280871079
2.8888304 -0.68928218 -0.15564716 4280871079
2.7479775 -0.66074562 -0.75730455 4280871079
2.9119668 -0.70125186 -0.69149953 4280871079
3.0766776 -0.74148518 -0.61516827 4280871079
3.0378072 -0.73323941 -0.4949587 4280871079
3.0024502 -0.72525984 -0.37925744 4280871079
2.9396451 -0.71117491 -0.26460484 4280871079
2.8786423 -0.69748062 -0.15522847 4280871079
2.7570324 -0.67260182 -0.76041043 4280871079
2.9020534 -0.70905429 -0.68969995 4280871079
3.0818298 -0.75354886 -0.61669469 4280871079
3.0296032 -0.74189955 -0.4940201 4280871079
2.9942446 -0.73379481 -0.37852621 4280871079
2.9217906 -0.71711993 -0.26321036 4280871079
2.8549788 -0.70177841 -0.15407708 4280871079
2.7585373 -0.68266892 -0.76144564 4280871079
2.8902285 -0.71632999 -0.68745047 4280871079
3.0735977 -0.76234657 -0.61554986 4280871079
3.0175407 -0.74956095 -0.49245578 4280871079
2.9608426 -0.73657447 -0.3746264 4280871079
2.9173362 -0.72683281 -0.26303601 4280871079
2.8448842 -0.70930928 -0.15365838 4280871079
2.7635109 -0.6946587 -0.76351619 4280871079
2.9009395 -0.72974223 -0.69059974 4280871079
3.0593603 -0.77072912 -0.61326015 4280871079
3.0109422 -0.75964934 -0.49182999 4280871079
2.9467053 -0.74398959 -0.37316394 4280871079
2.9051235 -0.73456979 -0.26216447 4280871079
2.8248401 -0.7153191 -0.15271634 4280871079
2.7442222 -0.7000035 -0.75885749 4280871079
2.9020214 -0.74133444 -0.69149953 4280871079
3.0433366 -0.77799988 -0.61058879 4280871079
2.9910493 -0.76574552 -0.48901421 4280871079
2.93819 -0.75330591 -0.37243277 4280871079
2.8889031 -0.74174422 -0.26094431 4280871079
2.7378979 -0.70908827 -0.75782222 4280871079
2.9013026 -0.75194877 -0.69194949 4280871079
3.0404646 -0.78914899 -0.61058879 4280871079
2.9748397 -0.77322459 -0.48682413 4280871079
2.9297793 -0.76205838 -0.37170154 4280871079
2.870872 -0.74780613 -0.2595498 4280871079
2.7487369 -0.72111768 -0.76144564 4280871079
2.8931386 -0.76008016 -0.69059974 4280871079
3.0265784 -0.79570192 -0.60829914 4280871079
2.9552035 -0.77804017 -0.48400828 4280871079
2.9214776 -0.77025133 -0.37097031 4280871079
2.8606706 -0.75528765 -0.25885254 4280871079
2.7404749 -0.72969615 -0.75989276 4280871079
2.8923507 -0.7706762 -0.69104964 4280871079
3.0198479 -0.80577725 -0.6075359 4280871079
2.952332 -0.78886616 -0.48400828 4280871079
2.8957584 -0.77429122 -0.36804545 4280871079
2.8580167 -0.76526862 -0.25885254 4280871079
2.7379112 -0.73925769 -0.75989276 4280871079
2.8913879 -0.78178072 -0.69149953 4280871079
2.9942751 -0.8101604 -0.60295647 4280871079
2.9438403 -0.79761726 -0.48306966 4280871079
2.8909853 -0.78437972 -0.3678017 4280871079
2.8457143 -0.7726301 -0.25798097 4280871079
2.7278609 -0.74677002 -0.75782222 4280871079
2.8942797 -0.79341435 -0.69284928 4280871079
2.9876425 -0.81956875 -0.60219324 4280871079
2.933419 -0.80579531 -0.4818182 4280871079
2.8844016 -0.7934134 -0.36731425 4280871079
2.8218696 -0.77674252 -0.25606358 4280871079
2.7326834 -0.75835371 -0.75989276 4280871079
2.8952477 -0.80455595 -0.69374907 4280871079
2.971523 -0.82631075 -0.59952188 4280871079
2.9096556 -0.81020117 -0.47837666 4280871079
2.8777902 -0.80241072 -0.36682677 4280871079
2.8095458 -0.78391069 -0.25519201 4280871079
2.7318795 -0.76841116 -0.76041043 4280871079
2.8794329 -0.81045663 -0.69059974 4280871079
2.961062 -0.834548 -0.5979954 4280871079
2.8955455 -0.81662828 -0.47649944 4280871079
2.8655617 -0.80925196 -0.36560807 4280871079
2.799123 -0.79154438 -0.25449476 4280871079
2.736748 -0.7795831 -0.76248091 4280871079
2.874712 -0.81996828 -0.69014984 4280871079
2.950727 -0.84220719 -0.59646893 4280871079
2.8888786 -0.82564497 -0.47587368 4280871079
2.8455427 -0.81433403 -0.36341441 4280871079
2.8003135 -0.80191922 -0.25484338 4280871079
2.7395782 -0.7907387 -0.76403385 4280871079
2.8755765 -0.83108002 -0.69104964 4280871079
2.9289093 -0.84704781 -0.5926528 4280871079
2.882184 -0.83462507 -0.47524795 4280871079
2.8369632 -0.8226034 -0.36268318 4280871079
2.8838794 -0.8443982 -0.69374907 4280871079
2.9146302 -0.85395437 -0.59036303 4280871079
2.8773577 -0.84412479 -0.47493511 4280871079
2.8340745 -0.83250135 -0.36268318 4280871079
2.7951171 -0.82795143 -0.78111589 4280871079
2.8809142 -0.85445976 -0.69374907 4280871079
2.9003391 -0.8607716 -0.58807337 4280871079
2.8497777 -0.84684831 -0.47086781 4280871079
2.8273461 -0.8412568 -0.36219573 4280871079
2.8704488 -0.86226821 -0.69194949 4280871079
2.8935561 -0.86976016 -0.58731008 4280871079
2.8316717 -0.85223657 -0.46836486 4280871079
2.8129883 -0.84768438 -0.36073327 4280871079
2.8692858 -0.87284988 -0.69239932 4280871079
2.8829901 -0.87756848 -0.58578366 4280871079
2.8324587 -0.86326736 -0.46899059 4280871079
2.7872286 -0.85054564 -0.35780841 4280871079
2.8699465 -0.88400751 -0.69329917 4280871079
2.8611476 -0.88184398 -0.58196747 4280871079
2.8143277 -0.86848933 -0.46648762 4280871079
2.7785525 -0.85851169 -0.35707721 4280871079
2.8835866 -0.89924157 -0.6973483 4280871079
2.8543038 -0.89065635 -0.58120424 4280871079
2.8112788 -0.878308 -0.46648762 4280871079
2.769855 -0.86642748 -0.35634598 4280871079
2.8878632 -0.91164827 -0.69914788 4280871079
2.8474333 -0.89943153 -0.580441 4280871079
2.7912455 -0.88275486 -0.46367183 4280871079
2.8661005 -0.91579187 -0.69464886 4280871079
2.833056 -0.90577823 -0.57815129 4280871079
2.7749774 -0.88827729 -0.46148172 4280871079
2.8573241 -0.9239921 -0.69329917 4280871079
2.8261416 -0.91445327 -0.57738805 4280871079
2.7605844 -0.89430553 -0.45960453 4280871079
2.8559332 -0.93456638 -0.69374907 4280871079
2.8005426 -0.9169817 -0.57280862 4280871079
2.7612002 -0.9051671 -0.46023026 4280871079
2.8563535 -0.94575483 -0.69464886 4280871079
2.7935975 -0.92551696 -0.57204539 4280871079
2.7636485 -0.91666561 -0.46116886 4280871079
2.8476579 -0.95336568 -0.69329917 4280871079
2.7791808 -0.93151927 -0.56975567 4280871079
2.8203177 -0.95517355 -0.68745047 4280871079
2.7816548 -0.94262052 -0.57090056 4280871079
2.8095922 -0.96248633 -0.68565083 4280871079
2.7837524 -0.95472026 -0.57204539 4280871079
5.8497715 -2.8455446 -0.79873174 4290322190
5.8296094 -2.8596821 -0.79726928 4290322190
5.8160334 -2.878253 -0.79678184 4290322190
5.8023992 -2.8967636 -0.79629439 4290322190
5.7922521 -2.9170001 -0.79629439 4290322190
5.7537174 -2.9228165 -0.79239452 4290322190
5.7434802 -2.942883 -0.79239452 4290322190
5.7336893 -2.9619129 -0.79239452 4290322190
5.7197938 -2.9800742 -0.79190701 4290322190
5.7040849 -2.997252 -0.79117584 4290322190
5.6772766 -3.0097702 -0.78898221 4290322190
5.6497574 -3.0192239 -0.7865448 4290322190
5.6531634 -3.0464606 -0.78849471 4290322190
5.6372628 -3.0633318 -0.78776348 4290322190
5.6195712 -3.0791755 -0.78678852 4290322190
5.3654761 -2.946038 -0.10684364 4290322190
5.5966258 -3.0920529 -0.7850824 4290322190
5.4213562 -2.9964542 -0.54193443 4290322190
5.3461733 -2.9573362 -0.32019141 4290322190
5.3796525 -2.9783087 -0.1073323 4290322190
5.5771275 -3.1067398 -0.78386366 4290322190
5.3830171 -2.9998415 -0.53914541 4290322190
5.3517623 -2.9873226 -0.10698325 4290322190
5.3827848 -3.023149 -0.75802737 4290322190
5.3360744 -3.0030429 -0.10687853 4290322190
5.3963823 -3.0556133 -0.76143968 4290322190
5.3394732 -3.029546 -0.10715777 4290322190
5.4098191 -3.0882096 -0.76485211 4290322190
5.4987965 -3.1645029 -0.7789889 4290322190
5.3308558 -3.0728109 -0.10740211 4290322190
5.4882727 -3.1827202 -0.7789889 4290322190
5.3285103 -3.0938013 -0.32291287 4290322190
5.320097 -3.0914004 -0.10740211 4290322190
5.4651332 -3.1948457 -0.77728271 4290322190
5.3297448 -3.1194448 -0.32364559 4290322190
5.3092737 -3.1099517 -0.10740211 4290322190
5.4607887 -3.2179344 -0.77825767 4290322190
5.3131156 -3.1359127 -0.32333156 4290322190
5.3087173 -3.1345661 -0.10761154 4290322190
5.4370122 -3.2308288 -0.77655149 4290322190
5.3055692 -3.1564822 -0.3235409 4290322190
5.3006287 -3.1560483 -0.10768134 4290322190
5.4120774 -3.2416279 -0.77460164 4290322190
5.2945189 -3.1749828 -0.3235409 4290322190
5.2964387 -3.1786482 -0.10782097 4290322190
5.4075265 -3.2646036 -0.77557659 4290322190
5.2834039 -3.1934445 -0.3235409 4290322190
5.2721791 -3.1879165 -0.10754173 4290322190
5.450943 -3.3155284 -0.78337622 4290322190
5.2830205 -3.2171805 -0.32416895 4290322190
5.267849 -3.2104628 -0.10768134 4290322190
5.4308743 -3.3293478 -0.78215748 4290322190
5.2768645 -3.2387362 -0.32448295 4290322190
5.2634268 -3.2330182 -0.10782097 4290322190
5.3989549 -3.3357646 -0.77923268 4290322190
5.2570343 -3.2518826 -0.32395959 4290322190
5.2521091 -3.2513716 -0.10782097 4290322190
5.3788524 -3.3493431 -0.77801394 4290322190
5.2507353 -3.2733834 -0.32427362 4290322190
5.2475138 -3.2739189 -0.10796059 4290322190
5.3856235 -3.3797054 -0.78069508 4290322190
5.2409687 -3.2927542 -0.32437828 4290322190
5.2258964 -3.2858295 -0.10775116 4290322190
5.3352056 -3.3740802 -0.77508909 4290322190
5.2412553 -3.3185077 -0.325111 4290322190
5.2177734 -3.3061924 -0.10782097 4290322190
5.3183732 -3.3894825 -0.77435786 4290322190
5.2290568 -3.3376956 -0.325111 4290322190
5.2095714 -3.3265374 -0.10789078 4290322190
5.2791934 -3.3917844 -0.7704581 4290322190
5.2106552 -3.3516061 -0.32469231 4290322190
5.2074327 -3.3521039 -0.10810021 4290322190
5.2473249 -3.3972454 -0.76753318 4290322190
5.1989245 -3.3697746 -0.32469231 4290322190
5.2024107 -3.374613 -0.10823982 4290322190
5.2254591 -3.4090338 -0.76607072 4290322190
5.2038517 -3.398823 -0.32573903 4290322190
5.184495 -3.3874719 -0.10810021 4290322190
5.2224207 -3.4317939 -0.76728946 4290322190
5.1958895 -3.4182565 -0.32594836 4290322190
5.1726394 -3.4055483 -0.10810021 4290322190
5.225306 -3.4598658 -0.76948309 4290322190
6.5848999 -4.3601027 1.2508501 4290322190
5.18892 -3.4396832 -0.32626238 4290322190
5.1746507 -3.431524 -0.10837945 4290322190
6.621902 -4.412921 0.69620007 4290322190
5.2022429 -3.469465 -0.76777691 4290322190
5.1708407 -3.452435 -0.32584369 4290322190
5.169291 -3.4540098 -0.10851907 4290322190
6.6266975 -4.4479213 0.41826901 4290322190
5.1829023 -3.4840791 -0.76680195 4290322190
5.1548381 -3.4691334 -0.32563433 4290322190
5.1565967 -3.4729328 -0.10851907 4290322190
6.6012039 -4.4643121 0.41764098 4290322190
5.1624908 -3.4965837 -0.76558328 4290322190
5.1559219 -3.4960735 -0.32647175 4290322190
5.1378241 -3.4864204 -0.10837945 4290322190
5.1305785 -3.5011551 -0.76265842 4290322190
5.1453362 -3.5151761 -0.32657638 4290322190
5.1322255 -3.508848 -0.10851907 4290322190
5.1431975 -3.5282176 0.10886811 4290322190
5.9749575 -4.1034045 0.6341452 4290322190
5.9418306 -4.0837073 0.88525897 4290322190
5.108511 -3.5122948 -0.76119596 4290322190
5.1445508 -3.5410423 -0.3273091 4290322190
5.1232395 -3.5290098 -0.10858887 4290322190
5.1456561 -3.5563812 0.10918226 4290322190
5.9524055 -4.1185675 0.6332736 4290322190
5.0880604 -3.5244541 -0.75997728 4290322190
5.8971028 -4.0863934 1.1363401 4290322190
5.1239529 -3.553288 -0.32678574 4290322190
5.1273179 -3.5582726 -0.10893792 4290322190
5.1299281 -3.5720358 0.10911245 4290322190
5.9450369 -4.1426883 0.37974975 4290322190
5.8985233 -4.1148672 0.88306534 4290322190
5.0643315 -3.5342405 -0.7582711 4290322190
5.1082435 -3.5688646 -0.32657638 4290322190
5.1083112 -3.5715656 -0.1087983 4290322190
5.1305242 -3.5991082 0.10939168 4290322190
5.0487161 -3.5496137 -0.75778365 4290322190
6.4145503 -4.5132418 1.5245639 4290322190
5.1055551 -3.5935712 -0.32720444 4290322190
5.0925431 -3.5870721 -0.1087285 4290322190
5.1211963 -3.6193035 0.10946149 4290322190
5.0314355 -3.5637729 -0.75705242 4290322190
6.2818341 -4.4527264 1.4967059 4290322190
5.0994964 -3.6159923 -0.32762313 4290322190
5.0832524 -3.6071413 -0.1087983 4290322190
5.1003861 -3.6313586 0.10928696 4290322190
5.0147414 -3.5769804 -0.75632119 4290322190
6.3965631 -4.5643086 1.2445928 4290322190
6.165597 -4.40275 1.4726639 4290322190
5.0933437 -3.6384146 -0.32804179 4290322190
6.3253937 -4.5185256 1.7946595 4290322190
5.0875325 -3.6356046 -0.10914735 4290322190
6.4679074 -4.642529 0.6965487 4290322190
6.3458667 -4.5582891 0.95935553 4290322190
5.002852 -3.5935903 -0.75632119 4290322190
6.2691002 -4.5048056 1.2226919 4290322190
6.0409822 -4.3440843 1.4463322 4290322190
5.0780082 -3.652952 -0.32783246 4290322190
6.2186227 -4.4734726 1.7685652 4290322190
5.0722027 -3.6501188 -0.10907754 4290322190
6.4350657 -4.6496577 0.41607088 4290322190
6.3394442 -4.5822506 0.68434685 4290322190
6.2149105 -4.4955397 0.94180632 4290322190
4.9758034 -3.6005578 -0.75412756 4290322190
6.1621294 -4.4606371 1.2048583 4290322190
5.9470372 -4.306519 1.4272513 4290322190
5.0723362 -3.674458 -0.32825115 4290322190
6.09409 -4.4162507 1.737522 4290322190
5.0691442 -3.6748443 -0.10928696 4290322190
6.0100336 -4.3585372 1.9892832 4290322190
6.3202939 -4.6003947 0.40968591 4290322190
6.2154975 -4.525775 0.67266804 4290322190
6.05479 -4.4119921 0.9198699 4290322190
4.9567885 -3.6132271 -0.75315261 4290322190
6.0379877 -4.402976 1.1835834 4290322190
5.8447332 -4.2636161 1.4062624 4290322190
5.0578656 -3.6909642 -0.32814649 4290322190
5.9889212 -4.3720016 1.7118775 4290322190
5.0498261 -3.6877995 -0.10914735 4290322190
5.9152274 -4.3213696 1.9628838 4290322190
6.2107778 -4.5539308 0.40361494 4290322190
6.0100894 -4.4083929 0.65209925 4290322190
5.970541 -4.3825903 0.90938914 4290322190
4.9473457 -3.6328576 -0.75364012 4290322190
5.9222851 -4.3503509 1.1638726 4290322190
5.7412214 -4.2188888 1.3848917 4290322190
5.8904171 -4.3316917 1.6880326 4290322190
5.040144 -3.7077739 -0.10921716 4290322190
5.8005271 -4.2687087 1.9297549 4290322190
6.3439755 -4.6823111 0.13762967 4290322190
6.083992 -4.4937062 0.39639258 4290322190
5.9145436 -4.3701453 0.64338368 4290322190
5.8466687 -4.3231497 0.89281487 4290322190
4.9298468 -3.6465633 -0.75290889 4290322190
5.8165512 -4.3040218 1.146039 4290322190
5.6286254 -4.1664834 1.3612314 4290322190
5.7938342 -4.2919078 1.6646378 4290322190
5.0303836 -3.7277262 -0.10928696 4290322190
5.7157545 -4.2371593 1.9064611 4290322190
6.2297015 -4.6316481 0.13550049 4290322190
5.9705229 -4.4421906 0.39000759 4290322190
5.8337231 -4.3419905 0.63623691 4290322190
5.7185097 -4.2593417 0.87550944 4290322190
4.9107203 -3.6590049 -0.75193387 4290322190
5.6953773 -4.2452035 1.1250768 4290322190
5.5369267 -4.1286016 1.3425322 4290322190
5.0413508 -3.7604451 -0.3296119 4290322190
5.7085342 -4.2596617 1.6443923 4290322190
5.0301614 -3.7548318 -0.10956621 4290322190
5.6188893 -4.1958237 1.8790263 4290322190
6.128665 -4.5898337 0.13365053 4290322190
5.8431044 -4.379158 0.38268054 4290322190
5.7260723 -4.2930088 0.62612689 4290322190
5.6289768 -4.2232842 0.86405367 4290322190
4.8963308 -3.6749332 -0.75169015 4290322190
5.5968013 -4.2021971 1.1084948 4290322190
5.4408531 -4.0865932 1.322688 4290322190
5.0297904 -3.7792192 -0.32971656 4290322190
5.5954914 -4.2057967 1.6160485 4290322190
5.0266137 -3.7795784 -0.10977564 4290322190
5.5424547 -4.168961 1.8583208 4290322190
6.0200148 -4.5413504 0.13162605 4290322190
5.7217364 -4.317904 0.37566754 4290322190
5.6315551 -4.2529345 0.61741126 4290322190
5.5302653 -4.1794729 0.85113555 4290322190
4.8771396 -3.6872137 -0.7507152 4290322190
5.4662309 -4.1325784 1.0853424 4290322190
5.5108609 -4.172369 1.5958028 4290322190
5.0108633 -3.7938123 -0.10970583 4290322190
5.44698 -4.1254997 1.830886 4290322190
5.9125633 -4.4911327 0.12960157 4290322190
5.6271281 -4.2774177 0.37043396 4290322190
5.5136027 -4.1941595 0.60608101 4290322190
5.4184322 -4.1232576 0.83602375 4290322190
4.8490901 -3.6913424 -0.74827784 4290322190
5.3582511 -4.081893 1.3093314 4290322190
5.4210567 -4.1327295 1.5737575 4290322190
4.99123 -3.8064301 -0.10956621 4290322190
5.3511424 -4.0823851 1.8034512 4290322190
5.8015604 -4.4388375 0.12750728 4290322190
5.5328722 -4.2363238 0.36520034 4290322190
5.4031787 -4.1385183 0.59544802 4290322190
5.3709216 -4.1167865 0.83090526 4290322190
4.8440518 -3.7142859 -0.74949652 4290322190
5.3573108 -4.1093235 1.0693861 4290322190
5.3354669 -4.0955272 1.3074232 4290322190
5.3339529 -4.0958452 1.5526122 4290322190
4.9874277 -3.8311381 -0.10977564 4290322190
5.2541413 -4.0374751 1.7754986 4290322190
5.6997328 -4.3941412 0.12562242 4290322190
5.4081955 -4.1723943 0.35797796 4290322190
5.3605094 -4.1400843 0.83163649 4290322190
4.828835 -3.7308013 -0.7492528 4290322190
5.3375244 -4.1253076 1.0684476 4290322190
5.3002319 -4.0994401 1.3024622 4290322190
4.9837599 -3.8560574 -0.33023992 4290322190
5.2464657 -4.059319 1.5314667 4290322190
4.9860034 -3.8591843 -0.11005487 4290322190
5.1446037 -3.9833777 1.7434052 4290322190
5.6014695 -4.351212 0.12380737 4290322190
5.3774152 -4.1816831 0.59597093 4290322190
5.3249335 -4.1438551 0.82846785 4290322190
4.7994642 -3.7362809 -0.74681538 4290322190
5.3114586 -4.1363468 1.0662575 4290322190
5.183672 -4.0382853 1.2772754 4290322190
4.9860234 -3.8857079 -0.33128664 4290322190
5.1378026 -4.0054336 1.5040227 4290322190
4.9718251 -3.8774328 -0.11005487 4290322190
5.0614271 -3.9487329 1.7201115 4290322190
5.5201001 -4.3189845 0.12234137 4290322190
5.2083626 -4.0780091 0.34667343 4290322190
5.3502378 -4.1906004 0.59457648 4290322190
5.3041868 -4.1575193 0.82749295 4290322190
4.7895174 -3.7554612 -0.74730289 4290322190
5.1819706 -4.0646448 1.0431051 4290322190
5.124753 -4.0212088 1.2662085 4290322190
4.9771428 -3.9067881 -0.33160067 4290322190
5.0379591 -3.9559467 1.4788282 4290322190
4.9582596 -3.8947639 -0.11005487 4290322190
4.9959669 -3.9257936 1.7025118 4290322190
5.4484491 -4.2936687 0.12108479 4290322190
5.1658669 -4.0739031 0.34478933 4290322190
5.3121133 -4.1907401 0.5919618 4290322190
5.1790185 -4.088675 0.81018746 4290322190
4.7732635 -3.769696 -0.74681538 4290322190
5.1073003 -4.0349503 1.0309032 4290322190
5.042912 -3.9855111 1.2494174 4290322190
4.9634752 -3.9241376 -0.33160067 4290322190
4.9553375 -3.9191101 1.4585826 4290322190
5.0873437 -4.0249553 -0.11323121 4290322190
4.9004326 -3.878468 1.6745592 4290322190
5.1078243 -4.057128 0.34185851 4290322190
5.1882591 -4.1224937 0.57976002 4290322190
5.1041188 -4.0585446 0.80068165 4290322190
4.7631826 -3.7888067 -0.74730289 4290322190
5.0344472 -4.0060148 1.0190142 4290322190
4.9613843 -3.9492915 1.2326262 4290322190
5.1825476 -4.1268167 -0.34719676 4290322190
4.9004722 -3.9036009 1.4464353 4290322190
5.1889906 -4.1349082 -0.11581416 4290322190
5.0108118 -4.0058093 0.33620623 4290322190
5.1052623 -4.0827765 0.57191598 4290322190
5.0169492 -4.0150228 0.78898221 4290322190
4.9617043 -3.9736533 1.0068123 4290322190
5.2245355 -4.1856427 -0.58568656 4290322190
4.8839183 -3.9141557 1.2165983 4290322190
5.1859751 -4.157722 -0.34834814 4290322190
4.8608174 -3.8970351 1.4383371 4290322190
5.1946945 -4.1662025 -0.11623303 4290322190
4.8354249 -3.879451 1.6611006 4290322190
5.1266623 -4.1263633 0.11487174 4290322190
4.946322 -3.9840569 0.33285671 4290322190
5.0220003 -4.0464582 0.5642463 4290322190
4.9388418 -3.9822967 0.7789889 4290322190
4.7187419 -3.8061852 -0.74437803 4290322190
4.8664837 -3.929563 1.215835 4290322190
4.8525648 -3.919723 1.4401367 4290322190
5.0596261 -4.088439 -0.11354536 4290322190
4.8241777 -3.8995767 1.662136 4290322190
4.9919086 -4.048142 0.11218407 4290322190
4.8439741 -3.9295769 0.32689041 4290322190
4.9406214 -4.0108404 0.55675089 4290322190
4.8872347 -3.9703312 0.77313918 4290322190
4.7100496 -3.8263881 -0.74510926 4290322190
4.8687572 -3.9567316 0.99367183 4290322190
5.2021804 -4.2292056 -0.58655816 4290322190
4.8496914 -3.9440489 1.2150718 4290322190
4.9190469 -4.0018787 -0.33233336 4290322190
4.829783 -3.9292583 1.4374373 4290322190
4.8225217 -3.9261498 1.6662771 4290322190
4.9738102 -4.0608792 0.11207936 4290322190
4.8617487 -3.9764619 0.77118921 4290322190
4.6957979 -3.8407297 -0.74486554 4290322190
4.8556094 -3.9728556 0.99367183 4290322190
4.8472195 -3.9688156 1.2177432 4290322190
4.887207 -4.0029826 -0.33107728 4290322190
4.8333097 -3.9588366 1.4423862 4290322190
4.8940163 -4.0099869 -0.11043882 4290322190
4.807981 -3.9408956 1.6657594 4290322190
4.9278755 -4.0506845 0.11134635 4290322190
4.9004073 -4.0309725 0.33254269 4290322190
4.8877573 -4.0219979 0.55378759 4290322190
4.8577304 -4.0001335 0.77265167 4290322190
4.7681651 -3.9277773 -0.75851488 4290322190
4.8478103 -3.9948053 0.99492329 4290322190
4.9095502 -4.0456815 -0.55657655 4290322190
4.8279715 -3.9798727 1.2162166 4290322190
4.9078064 -4.047122 -0.33338007 4290322190
4.8134484 -3.9707234 1.4405866 4290322190
4.9385986 -4.0754113 -0.11176521 4290322190
4.7956858 -3.9588847 1.6662771 4290322190
4.8967628 -4.053834 0.1109624 4290322190
4.8893828 -4.050602 0.33275205 4290322190
4.8828931 -4.0466623 0.55483341 4290322190
4.8437376 -4.017066 0.77265167 4290322190
4.7422028 -3.9342575 -0.75656492 4290322190
4.8399167 -4.0167489 0.99617481 4290322190
4.9613242 -4.1175079 -0.56407195 4290322190
4.8095183 -3.9929392 1.2150718 4290322190
4.9259148 -4.0910258 -0.33557817 4290322190
4.8025565 -3.9899921 1.4414864 4290322190
4.9105015 -4.0811219 -0.11145107 4290322190
4.7892652 -3.9817755 1.6688653 4290322190
4.8948689 -4.0811467 0.11124164 4290322190
4.8752136 -4.0676446 0.33275205 4290322190
4.8702674 -4.064959 0.55500776 4290322190
4.8357806 -4.0390396 0.77362669 4290322190
4.7162547 -3.9406042 -0.75461507 4290322190
4.8364758 -4.0424871 0.99836493 4290322190
4.9431429 -4.1331086 -0.56372333 4290322190
4.8091063 -4.0210366 1.2185063 4290322190
4.9085412 -4.1056333 -0.33536884 4290322190
4.7945781 -4.0117335 1.4432859 4290322190
4.9023595 -4.1033721 -0.11159069 4290322190
4.7812614 -4.0034299 1.6709359 4290322190
4.8928452 -4.1084957 0.11152088 4290322190
4.8609853 -4.0846372 0.33275205 4290322190
4.8583856 -4.0853467 0.55535638 4290322190
4.8429198 -4.0737848 0.77703899 4290322190
4.7374048 -3.9864397 -0.76022106 4290322190
4.8147788 -4.0529842 0.99680054 4290322190
4.9347816 -4.1554718 -0.56442058 4290322190
4.8063483 -4.0487552 1.2215593 4290322190
4.8980417 -4.1274571 -0.33568287 4290322190
4.7738824 -4.0242558 1.4414864 4290322190
4.8910642 -4.1230369 -0.1116605 4290322190
4.7820263 -4.0325489 1.6761122 4290322190
4.8777537 -4.1264009 0.11152088 4290322190
4.8619437 -4.1144824 0.33379877 4290322190
4.8440952 -4.1022811 0.55535638 4290322190
4.8294702 -4.0927911 0.77728271 4290322190
4.7091346 -3.992224 -0.75802737 4290322190
4.8051224 -4.0735989 0.99773914 4290322190
4.9172072 -4.1700945 -0.56407195 4290322190
4.8011694 -4.0731277 1.2238491 4290322190
4.8957868 -4.1548681 -0.33652022 4290322190
4.7776327 -4.0560298 1.4468851 4290322190
4.8766422 -4.1400852 -0.1116605 4290322190
4.7590861 -4.0417137 1.6730064 4290322190
4.8609986 -4.1399603 0.11145107 4290322190
4.8597126 -4.1417937 0.33463615 4290322190
4.8342938 -4.1230435 0.55587929 4290322190
4.8234224 -4.1152258 0.77850145 4290322190
4.7079492 -4.018127 -0.75997728 4290322190
4.8043947 -4.1018901 1.0005549 4290322190
4.9071655 -4.1911154 -0.56459486 4290322190
4.7831569 -4.0852017 1.2227042 4290322190
4.8865371 -4.1749721 -0.33683425 4290322190
4.7760072 -4.0819798 1.4504844 4290322190
4.8712807 -4.1648793 -0.11186992 4290322190
4.7508211 -4.063324 1.6750768 4290322190
4.8495536 -4.1595068 0.11152088 4290322190
4.8452258 -4.1587315 0.33463615 4290322190
4.82513 -4.1429458 0.55640227 4290322190
4.799994 -4.1242752 0.77703899 4290322190
4.662281 -4.0073633 -0.75485879 4290322190
4.7990341 -4.1263628 1.0024322 4290322190
4.9053264 -4.2177567 -0.56598938 4290322190
4.7629137 -4.0967522 1.2211776 4290322190
4.8689065 -4.1893988 -0.33662489 4290322190
4.7646837 -4.1011682 1.4513842 4290322190
4.8627739 -4.187077 -0.11200955 4290322190
4.7395363 -4.0824041 1.6761122 4290322190
4.8440843 -4.1842527 0.11173031 4290322190
4.8337011 -4.1782312 0.33484548 4290322190
4.8226953 -4.1701884 0.55779672 4290322190
4.791573 -4.1462007 0.77801394 4290322190
4.6752806 -4.046999 -0.75924611 4290322190
4.7875876 -4.1456761 1.0030578 4290322190
4.8965983 -4.2400708 -0.56668663 4290322190
4.7649078 -4.1274924 1.2253754 4290322190
4.8587809 -4.2102923 -0.33693892 4290322190
4.7503386 -4.117775 1.4513842 4290322190
4.857193 -4.2118864 -0.11221898 4290322190
4.73985 -4.1115828 1.6812886 4290322190
4.8385019 -4.2090116 0.11193974 4290322190
4.8220997 -4.1977015 0.33505484 4290322190
4.8111143 -4.1896148 0.55814534 4290322190
4.7875466 -4.1720304 0.77972013 4290322190
4.63868 -4.0437274 -0.75559002 4290322190
4.7671318 -4.1571693 1.0018064 4290322190
4.8847709 -4.2597566 -0.56703526 4290322190
4.7637863 -4.1557155 1.2288101 4290322190
4.8485694 -4.2311668 -0.33725294 4290322190
4.7359357 -4.1343322 1.4513842 4290322190
4.8424616 -4.2288151 -0.11221898 4290322190
4.7312884 -4.1331863 1.6833591 4290322190
4.8297968 -4.2311454 0.11207936 4290322190
4.8134251 -4.2197742 0.33547351 4290322190
4.7994571 -4.2090106 0.55849403 4290322190
4.7819066 -4.1965737 0.78118259 4290322190
4.6334872 -4.0677533 -0.75705242 4290322190
4.7600136 -4.1803021 1.0033708 4290322190
4.8743629 -4.2807255 -0.56755817 4290322190
4.7507262 -4.1736145 1.2291917 4290322190
4.8457723 -4.2586136 -0.33809033 4290322190
4.7331839 -4.1611323 1.4549835 4290322190
4.8306742 -4.2483339 -0.11228879 4290322190
4.7168322 -4.1496763 1.6833591 4290322190
4.8149977 -4.2479792 0.11207936 4290322190
4.8016605 -4.2391944 0.33568287 4290322190
4.7862287 -4.227057 0.55866832 4290322190
4.7702036 -4.2158689 0.78167003 4290322190
4.6014132 -4.0681238 -0.75412756 4290322190
4.7557502 -4.2060528 1.0055609 4290322190
4.8571486 -4.2972422 -0.56738389 4290322190
4.7339268 -4.1896982 1.2288101 4290322190
4.8346171 -4.2803173 -0.33840433 4290322190
4.727385 -4.1853795 1.4576828 4290322190
4.8247967 -4.2731252 -0.11249821 4290322190
4.7023177 -4.1661162 1.6833591 4290322190
4.8023849 -4.2682552 0.11214916 4290322190
4.8025074 -4.2713656 0.33683425 4290322190
4.7796345 -4.2525177 0.5597142 4290322190
4.7547197 -4.2333241 0.78167003 4290322190
4.5760956 -4.0757198 -0.75242138 4290322190
4.7462015 -4.2287116 1.0068123 4290322190
4.8562393 -4.3282719 -0.56912696 4290322190
4.7185392 -4.2070203 1.2288101 4290322190
4.8203874 -4.2993379 -0.33850899 4290322190
4.7178302 -4.2078667 1.4594824 4290322190
4.8180552 -4.2987676 -0.11270764 4290322190
4.6985478 -4.193614 1.6875002 4290322190
4.7911777 -4.2898302 0.11225387 4290322190
4.780129 -4.2814407 0.33631086 4290322190
4.7669835 -4.2726665 0.56006277 4290322190
4.7421274 -4.2533741 0.78215748 4290322190
4.5367188 -4.0691361 -0.74827784 4290322190
4.7343526 -4.2478909 1.0074381 4290322190
4.85148 -4.3545127 -0.57034713 4290322190
4.7125897 -4.2313347 1.2310997 4290322190
4.8053503 -4.3161378 -0.33850899 4290322190
4.7031131 -4.224309 1.4594824 4290322190
4.8119454 -4.3235793 -0.11291707 4290322190
4.6925011 -4.2177377 1.6906061 4290322190
4.7888093 -4.3164053 0.11253312 4290322190
4.7733216 -4.3039565 0.33683425 4290322190
4.767581 -4.3017974 0.5618059 4290322190
4.7338901 -4.2743964 0.78313243 4290322190
4.5335135 -4.0934696 -0.74998403 4290322190
4.7187738 -4.2622437 1.0071251 4290322190
4.8384919 -4.371913 -0.57052147 4290322190
4.7130966 -4.2601042 1.2349159 4290322190
4.7999001 -4.3400865 -0.33913705 4290322190
4.6919699 -4.2424955 1.4603822 4290322190
4.7886834 -4.3314633 -0.11270764 4290322190
4.6842189 -4.2384605 1.6926767 4290322190
4.7833548 -4.3403244 0.11274255 4290322190
4.7671418 -4.3286476 0.33746228 4290322190
4.75034 -4.3149052 0.56145728 4290322190
4.7285028 -4.2980833 0.78459489 4290322190
4.4971666 -4.0892377 -0.74632788 4290322190
4.7257862 -4.2986274 1.0118183 4290322190
4.8298631 -4.3932967 -0.57121873 4290322190
4.7003965 -4.2770314 1.2352976 4290322190
4.7913895 -4.3613572 -0.33955571 4290322190
4.6828961 -4.2640963 1.4621819 4290322190
4.7824044 -4.3562326 -0.11291707 4290322190
4.6608276 -4.2469783 1.6895708 4290322190
4.7666984 -4.3556457 0.11270764 4290322190
4.756424 -4.3493052 0.3377763 4290322190
4.7381887 -4.3341498 0.5618059 4290322190
4.7222567 -4.3226042 0.78605735 4290322190
4.5018973 -4.1223388 -0.74949652 4290322190
4.7034693 -4.3084254 1.0102539 4290322190
4.8189058 -4.4141669 -0.5717417 4290322190
4.6883326 -4.2960649 1.2360607 4290322190
4.7893867 -4.390202 -0.34049776 4290322190
4.6809092 -4.2922697 1.466231 4290322190
4.7819052 -4.3864174 -0.11326612 4290322190
4.6573615 -4.2736707 1.6937119 4290322190
4.7558799 -4.3763204 0.11281236 4290322190
4.7456212 -4.3699403 0.33809033 4290322190
4.7318244 -4.3587618 0.56285179 4290322190
4.7056799 -4.3377161 0.78581363 4290322190
4.4685082 -4.1205339 -0.74632788 4290322190
4.7000175 -4.3355327 1.0127568 4290322190
4.817337 -4.4453106 -0.57348478 4290322190
4.671113 -4.3118887 1.2356791 4290322190
4.7688618 -4.4036617 -0.34018376 4290322190
4.6730566 -4.3151937 1.4684805 4290322190
4.7724404 -4.4085097 -0.11340573 4290322190
4.6551847 -4.301702 1.6983706 4290322190
4.7500734 -4.4032383 0.11305669 4290322190
4.7310367 -4.3886628 0.338195 4290322190
4.7245793 -4.3842072 0.56389767 4290322190
4.6941137 -4.3589864 0.7865448 4290322190
4.4301062 -4.1152682 -0.74242812 4290322190
4.7000127 -4.3675213 1.0161984 4290322190
4.8010116 -4.4629374 -0.57348478 4290322190
4.6696548 -4.3423491 1.2394953 4290322190
4.7629261 -4.4306331 -0.34091645 4290322190
4.6543555 -4.3296375 1.4675807 4290322190
4.7650342 -4.4341459 -0.11361516 4290322190
4.6422148 -4.3213677 1.6994059 4290322190
4.742672 -4.4288073 0.11326612 4290322190
4.7178378 -4.4087005 0.33840433 4290322190
4.7143006 -4.4069366 0.56459486 4290322190
4.6868033 -4.3842988 0.7880072 4290322190
4.4149933 -4.1314778 -0.74242812 4290322190
4.6753206 -4.3766184 1.0143212 4290322190
4.7904391 -4.4859509 -0.57418203 4290322190
4.6623049 -4.3674884 1.241785 4290322190
4.7568564 -4.4576206 -0.34164914 4290322190
4.6412992 -4.3493328 1.4684805 4290322190
4.745832 -4.4488454 -0.11354536 4290322190
4.6404371 -4.3515682 1.7045823 4290322190
4.732234 -4.4516411 0.11340573 4290322190
4.714736 -4.4382839 0.33934638 4290322190
4.7039189 -4.4296498 0.56529218 4290322190
4.6822605 -4.4123387 0.78995717 4290322190
4.3983765 -4.1462693 -0.74218434 4290322190
4.6664343 -4.4005013 1.0158856 4290322190
4.7768641 -4.5062132 -0.57453066 4290322190
4.6519766 -4.3899369 1.2433115 4290322190
4.7492003 -4.4832511 -0.3422772 4290322190
4.632412 -4.373003 1.4707299 4290322190
4.7353101 -4.4717021 -0.11368498 4290322190
4.6216474 -4.3658929 1.703547 4290322190
4.7190051 -4.465662 0.11340573 4290322190
4.7087979 -4.4591198 0.33986974 4290322190
4.6936479 -4.4463272 0.56564075 4290322190
4.67347 -4.4303088 0.7906884 4290322190
4.3860545 -4.1593018 -0.74218434 4290322190
4.6547904 -4.4156866 1.0161984 4290322190
4.7663631 -4.5231094 -0.57487923 4290322190
4.6360836 -4.4010167 1.2425482 4290322190
4.7358775 -4.497323 -0.3422772 4290322190
4.6278954 -4.3947802 1.4734293 4290322190
4.7336192 -4.4967494 -0.11396421 4290322190
4.6086736 -4.3795867 1.703547 4290322190
4.7083955 -4.4884477 0.11354536 4290322190
4.6982031 -4.481863 0.34028843 4290322190
4.683085 -4.4690022 0.566338 4290322190
4.6543298 -4.4446664 0.79020089 4290322190
4.3650389 -4.1698647 -0.74120939 4290322190
4.6585679 -4.4518247 1.0205785 4290322190
4.7598343 -4.5501862 -0.57609946 4290322190
4.6270165 -4.4247637 1.2444563 4290322190
4.7222486 -4.5174117 -0.34248653 4290322190
4.6286545 -4.4278779 1.4788282 4290322190
4.719996 -4.5168343 -0.11403403 4290322190
4.6009636 -4.4044647 1.7066529 4290322190
4.7005668 -4.5139847 0.11375479 4290322190
4.6846251 -4.5018206 0.34049776 4290322190
4.6810379 -4.4999442 0.56808108 4290322190
4.6422992 -4.4658241 0.79093212 4290322190
4.3568788 -4.1927176 -0.74242812 4290322190
4.6379509 -4.4647589 1.01964 4290322190
4.7525344 -4.5750642 -0.57714534 4290322190
4.6242704 -4.4531446 1.2478909 4290322190
4.7122049 -4.5394111 -0.34290522 4290322190
4.606782 -4.439404 1.4770286 4290322190
4.7120471 -4.5424309 -0.11424346 4290322190
4.5959144 -4.4320264 1.710794 4290322190
4.6876564 -4.5331459 0.1138246 4290322190
4.6717529 -4.5209231 0.34070709 4290322190
4.6738906 -4.5245714 0.56912696 4290322190
4.6409397 -4.4958138 0.79336947 4290322190
4.2951736 -4.1623125 -0.73438478 4290322190
