# .PCD v0.7 - Point Cloud Data file format
VERSION 0.7
FIELDS x y z intensity
SIZE 4 4 4 4
TYPE F F F F
COUNT 1 1 1 1
WIDTH 147
HEIGHT 1
VIEWPOINT 0 0 0 1 0 0 0
POINTS 147
DATA ascii
2.8186255 -0.96725595 -0.69771278 100
2.825146 -0.96207404 -0.69548839 100
2.8316665 -0.95689207 -0.69326407 100
2.838187 -0.95171016 -0.69103974 100
2.8447073 -0.9465282 -0.68881541 100
2.8512278 -0.94134623 -0.68659103 100
2.8577483 -0.93616432 -0.6843667 100
2.8642688 -0.93098235 -0.68214238 100
2.8707891 -0.92580044 -0.67991805 100
2.8773096 -0.92061847 -0.67769367 100
2.8838301 -0.91543657 -0.67546934 100
2.8903506 -0.9102546 -0.67324501 100
2.8968711 -0.90507269 -0.67102069 100
2.9033914 -0.89989072 -0.6687963 100
2.9099119 -0.89470881 -0.66657197 100
2.9164324 -0.88952684 -0.66434765 100
2.9229529 -0.88434494 -0.66212326 100
2.9294734 -0.87916297 -0.65989894 100
2.9359937 -0.873981 -0.65767461 100
2.9425142 -0.86879909 -0.65545028 100
2.9490347 -0.86361712 -0.6532259 100
2.9555552 -0.85843521 -0.65100157 100
2.9620757 -0.85325325 -0.64877725 100
2.9685962 -0.84807134 -0.64655286 100
2.9751165 -0.84288937 -0.64432853 100
2.981637 -0.8377074 -0.64210421 100
2.9881575 -0.83252549 -0.63987988 100
2.994678 -0.82734358 -0.6376555 100
3.0011983 -0.82216161 -0.63543117 100
3.0077188 -0.81697971 -0.63320684 100
3.0142393 -0.81179774 -0.63098252 100
3.0207598 -0.80661583 -0.62875819 100
3.0272803 -0.80143386 -0.62653381 100
3.0338006 -0.79625195 -0.62430948 100
3.0403211 -0.79106998 -0.62208515 100
3.0468416 -0.78588808 -0.61986083 100
3.0533621 -0.78070617 -0.61763644 100
3.0598824 -0.7755242 -0.61541212 100
3.0664029 -0.77034229 -0.61318779 100
3.0729234 -0.76516032 -0.61096346 100
3.0794439 -0.75997841 -0.60873914 100
3.0859642 -0.75479645 -0.60651475 100
3.0924847 -0.74961454 -0.60429043 100
3.0990052 -0.74443257 -0.6020661 100
3.1055257 -0.73925066 -0.59984177 100
3.1120462 -0.73406875 -0.59761739 100
3.1185665 -0.72888678 -0.59539306 100
3.125087 -0.72370487 -0.59316874 100
3.1316075 -0.71852291 -0.59094441 100
3.138128 -0.713341 -0.58872008 100
3.1446483 -0.70815903 -0.5864957 100
3.1511688 -0.70297712 -0.58427137 100
3.1576893 -0.69779515 -0.58204705 100
3.1642098 -0.69261324 -0.57982272 100
3.1707301 -0.68743134 -0.57759833 100
3.1772506 -0.68224937 -0.57537401 100
3.1837711 -0.67706746 -0.57314968 100
3.1902916 -0.67188549 -0.57092535 100
3.1968122 -0.66670358 -0.56870103 100
3.2271745 -0.63010401 -0.52868551 100
3.2236154 -0.62930697 -0.52127731 100
3.2200565 -0.62851 -0.51386911 100
3.2164974 -0.62771297 -0.50646085 100
3.2129385 -0.62691599 -0.49905264 100
3.2093794 -0.62611896 -0.49164444 100
3.2058206 -0.62532198 -0.48423621 100
3.2022617 -0.62452495 -0.47682801 100
3.1987026 -0.62372798 -0.46941978 100
3.1951437 -0.62293094 -0.46201158 100
3.1915846 -0.62213397 -0.45460334 100
3.1880257 -0.62133694 -0.44719514 100
3.1844666 -0.62053996 -0.43978694 100
3.1809077 -0.61974293 -0.43237871 100
3.1773489 -0.6189459 -0.42497048 100
3.1737897 -0.61814892 -0.41756228 100
3.1702309 -0.61735189 -0.41015404 100
3.1666718 -0.61655492 -0.40274581 100
3.1631129 -0.61575788 -0.39533761 100
3.1595538 -0.61496091 -0.38792938 100
3.1559949 -0.61416388 -0.38052115 100
3.1524358 -0.6133669 -0.37311295 100
3.1488769 -0.61256987 -0.36570472 100
3.145318 -0.61177289 -0.35829651 100
3.1417589 -0.61097586 -0.35088828 100
3.1382 -0.61017889 -0.34348005 100
3.1346409 -0.60938185 -0.33607185 100
3.1310821 -0.60858488 -0.32866365 100
3.1275229 -0.60778785 -0.32125545 100
3.1239641 -0.60699087 -0.31384721 100
3.1204052 -0.60619384 -0.30643901 100
3.1168461 -0.60539687 -0.29903081 100
3.1132872 -0.60459983 -0.29162261 100
3.1097281 -0.60380286 -0.28421438 100
3.1061692 -0.60300583 -0.27680618 100
3.1026103 -0.60220879 -0.26939797 100
3.0990512 -0.60141182 -0.26198974 100
3.0954924 -0.60061479 -0.25458154 100
3.0919333 -0.59981781 -0.24717334 100
3.0883744 -0.59902078 -0.23976512 100
3.0848153 -0.59822381 -0.23235692 100
3.0812564 -0.59742677 -0.2249487 100
3.0776975 -0.5966298 -0.2175405 100
3.0741384 -0.59583277 -0.21013229 100
3.0705795 -0.59503579 -0.20272408 100
3.0670204 -0.59423876 -0.19531587 100
3.1548214 -0.50172389 -0.60756481 100
3.150681 -0.49530625 -0.61017823 100
3.1465406 -0.48888865 -0.61279172 100
3.1424003 -0.48247105 -0.6154052 100
3.1382599 -0.47605348 -0.61801869 100
3.1341195 -0.46963587 -0.62063217 100
3.1299791 -0.46321827 -0.62324566 100
3.1258388 -0.45680067 -0.62585914 100
3.1216984 -0.45038307 -0.62847263 100
3.117558 -0.44396546 -0.63108611 100
3.1134176 -0.43754786 -0.6336996 100
3.1092772 -0.43113026 -0.63631302 100
3.1051369 -0.42471269 -0.63892651 100
3.1009965 -0.41829509 -0.64153999 100
3.0968561 -0.41187748 -0.64415348 100
3.0927157 -0.40545988 -0.64676696 100
3.0885754 -0.39904228 -0.64938045 100
3.084435 -0.39262468 -0.65199393 100
3.0802946 -0.38620707 -0.65460742 100
3.0761542 -0.37978947 -0.6572209 100
3.0720139 -0.37337184 -0.65983438 100
3.0678735 -0.36695424 -0.66244787 100
3.0637331 -0.36053663 -0.6650613 100
3.0595927 -0.35411903 -0.66767478 100
3.0554523 -0.34770143 -0.67028826 100
3.0513117 -0.34128383 -0.67290175 100
3.0471714 -0.33486626 -0.67551523 100
3.043031 -0.32844865 -0.67812872 100
3.0388906 -0.32203105 -0.6807422 100
3.0347502 -0.31561348 -0.68335569 100
3.0306098 -0.30919588 -0.68596917 100
3.0264695 -0.30277827 -0.6885826 100
3.0223291 -0.2963607 -0.69119608 100
3.0181887 -0.2899431 -0.69380957 100
3.0140483 -0.2835255 -0.69642305 100
3.009908 -0.27710789 -0.69903654 100
3.0057676 -0.27069032 -0.70165002 100
3.0016272 -0.26427272 -0.70426351 100
2.9974868 -0.25785512 -0.70687693 100
2.9933465 -0.25143754 -0.70949042 100
2.9892061 -0.24501994 -0.7121039 100
2.9850657 -0.23860236 -0.71471739 100
