# .PCD v0.7 - Point Cloud Data file format
VERSION 0.7
FIELDS x y z rgb
SIZE 4 4 4 4
TYPE F F F U
COUNT 1 1 1 1
WIDTH 413
HEIGHT 1
VIEWPOINT 0 0 0 1 0 0 0
POINTS 413
DATA ascii
2.9857328 -0.23812854 -0.69149953 4279036563
2.9926515 -0.2491961 -0.69329917 4279036563
2.9917634 -0.2596409 -0.69329917 4279036563
2.9986494 -0.27026021 -0.69509876 4279036563
3.0151501 -0.28236106 -0.69914788 4279036563
2.8765996 -0.27850527 -0.77438658 4279036563
3.0122573 -0.29217002 -0.69869798 4279036563
2.8679714 -0.28727269 -0.7723161 4279036563
3.0170362 -0.30326766 -0.70004767 4279036563
2.8611865 -0.29668429 -0.77076316 4279036563
3.0140209 -0.31359556 -0.69959778 4279036563
2.8658957 -0.30728775 -0.7723161 4279036563
3.0090327 -0.32369769 -0.69869798 4279036563
2.8513649 -0.31580108 -0.76869255 4279036563
3.0098212 -0.33441436 -0.69914788 4279036563
2.8387291 -0.32443613 -0.76558679 4279036563
3.0086355 -0.34491858 -0.69914788 4279036563
2.8356607 -0.33411711 -0.76506913 4279036563
3.0074131 -0.35541856 -0.69914788 4279036563
2.845984 -0.34540993 -0.76817495 4279036563
2.9964819 -0.36473691 -0.69689834 4279036563
2.8428438 -0.35510269 -0.76765728 4279036563
2.9875214 -0.37370408 -0.69509876 4279036563
2.8416507 -0.36452794 -0.76765728 4279036563
2.9861987 -0.38413024 -0.69509876 4279036563
2.8249733 -0.37291804 -0.76351619 4279036563
2.9944303 -0.39635119 -0.6973483 4279036563
2.8274167 -0.38378933 -0.76455152 4279036563
2.9910264 -0.4070608 -0.69689834 4279036563
2.8298173 -0.39468342 -0.76558679 4279036563
2.9779346 -0.41640157 -0.69419897 4279036563
2.8323178 -0.40461168 -0.76662207 4279036563
2.9765375 -0.42627448 -0.69419897 4279036563
3.1171775 -0.44697094 -0.61211532 4279036563
2.8289766 -0.41421592 -0.7661044 4279036563
2.9750314 -0.4366619 -0.69419897 4279036563
3.1194832 -0.4584201 -0.6128785 4279036563
2.8141403 -0.42208257 -0.76248091 4279036563
2.973489 -0.44704407 -0.69419897 4279036563
3.1198056 -0.46959856 -0.61326015 4279036563
2.8069215 -0.43102357 -0.76092798 4279036563
2.9757626 -0.45801368 -0.69509876 4279036563
3.1297891 -0.48227984 -0.61554986 4279036563
2.8149419 -0.44231823 -0.76351619 4279036563
2.9587455 -0.46597287 -0.69149953 4279036563
3.1397226 -0.49503654 -0.61783957 4279036563
2.819103 -0.45306122 -0.76506913 4279036563
2.953336 -0.47516271 -0.69059974 4279036563
3.1476665 -0.50755584 -0.61974764 4279036563
2.8118658 -0.46146855 -0.76351619 4279036563
2.9593511 -0.48673394 -0.69239932 4279036563
3.1382177 -0.51671529 -0.61822122 4279036563
2.7968192 -0.46953258 -0.75989276 4279036563
2.9595556 -0.49738404 -0.69284928 4279036563
3.1324306 -0.52756178 -0.61745793 4279036563
2.8008757 -0.48027197 -0.76144564 4279036563
2.9577129 -0.508228 -0.69284928 4279036563
3.1344397 -0.53915852 -0.61822122 4279036563
2.7935586 -0.48855895 -0.75989276 4279036563
2.942575 -0.51567864 -0.68969995 4279036563
3.1248994 -0.54819274 -0.61669469 4279036563
2.8014324 -0.49951559 -0.76248091 4279036563
2.9427669 -0.52577651 -0.69014984 4279036563
3.1230643 -0.55855227 -0.61669469 4279036563
2.8034728 -0.50998282 -0.76351619 4279036563
2.942831 -0.53639495 -0.69059974 4279036563
3.1095076 -0.56733614 -0.61440504 4279036563
2.7883797 -0.51729906 -0.75989276 4279036563
2.9447725 -0.54737628 -0.69149953 4279036563
3.1113684 -0.57890511 -0.61516827 4279036563
2.7864649 -0.52751541 -0.75989276 4279036563
2.9466732 -0.55837774 -0.69239932 4279036563
3.109226 -0.59030497 -0.61516827 4279036563
2.7884004 -0.53797078 -0.76092798 4279036563
2.9331269 -0.56695509 -0.68969995 4279036563
3.1110013 -0.6019004 -0.61593145 4279036563
2.7902968 -0.548446 -0.76196331 4279036563
2.9293187 -0.57630241 -0.68925005 4279036563
3.1088812 -0.61275613 -0.61593145 4279036563
2.7884629 -0.55769593 -0.76196331 4279036563
2.9330213 -0.58767271 -0.69059974 4279036563
3.0991328 -0.62151814 -0.61440504 4279036563
2.7751408 -0.56511319 -0.75885749 4279036563
2.9271333 -0.59712821 -0.68969995 4279036563
3.093097 -0.63154674 -0.61364174 4279036563
2.7693684 -0.5740127 -0.75782222 4279036563
2.9364793 -0.60971928 -0.69239932 4279036563
3.0908735 -0.64233983 -0.61364174 4279036563
2.7748063 -0.58575511 -0.75989276 4279036563
2.9209867 -0.6171459 -0.68925005 4279036563
3.0923402 -0.65447718 -0.61440504 4279036563
2.7727447 -0.59543741 -0.75989276 4279036563
2.9129894 -0.62661827 -0.6879003 4279036563
3.1015522 -0.66774672 -0.61669469 4279036563
2.7745299 -0.6054526 -0.76092798 4279036563
2.9204144 -0.63835531 -0.69014984 4279036563
3.0839775 -0.67467159 -0.61364174 4279036563
2.7630765 -0.61255938 -0.75833982 4279036563
2.9201839 -0.64845872 -0.69059974 4279036563
3.0817232 -0.68489474 -0.61364174 4279036563
2.7647996 -0.62256742 -0.75937515 4279036563
2.9218194 -0.65899634 -0.69149953 4279036563
3.0870957 -0.69683951 -0.61516827 4279036563
2.7603951 -0.63322908 -0.75885749 4279036563
2.9058559 -0.66766524 -0.68835026 4279036563
3.0842736 -0.70922625 -0.61516827 4279036563
2.7676876 -0.64457029 -0.76144564 4279036563
2.9055235 -0.67774045 -0.6888001 4279036563
3.0819049 -0.71945012 -0.61516827 4279036563
2.7655349 -0.65374476 -0.76144564 4279036563
2.907053 -0.68826967 -0.68969995 4279036563
3.0756814 -0.7287609 -0.61440504 4279036563
2.7538435 -0.66113943 -0.75885749 4279036563
2.9197905 -0.70205766 -0.69329917 4279036563
3.0845711 -0.74224842 -0.61669469 4279036563
2.7477653 -0.66983294 -0.75782222 4279036563
2.9097495 -0.71039659 -0.69149953 4279036563
3.0743332 -0.75114715 -0.61516827 4279036563
2.7584181 -0.68315041 -0.76144564 4279036563
2.9034691 -0.71961159 -0.69059974 4279036563
3.0734644 -0.76288301 -0.61554986 4279036563
2.7560167 -0.69277495 -0.76144564 4279036563
2.8894732 -0.7273941 -0.6879003 4279036563
3.0631678 -0.77168834 -0.61402339 4279036563
2.7573254 -0.70334595 -0.76248091 4279036563
2.8945982 -0.73889995 -0.68969995 4279036563
3.0509448 -0.7799449 -0.61211532 4279036563
2.7456262 -0.71006727 -0.75989276 4279036563
2.9070933 -0.75290817 -0.69329917 4279036563
3.0369389 -0.78710252 -0.60982555 4279036563
2.741137 -0.71963525 -0.75937515 4279036563
2.8969083 -0.76107049 -0.69149953 4279036563
3.0302365 -0.79722911 -0.60906237 4279036563
2.7404749 -0.72969615 -0.75989276 4279036563
2.8846846 -0.76917279 -0.68925005 4279036563
2.7453716 -0.74127209 -0.76196331 4279036563
2.889643 -0.78076774 -0.69104964 4279036563
2.7466249 -0.75139153 -0.76299858 4279036563
2.8887796 -0.79136455 -0.69149953 4279036563
2.7365389 -0.75890946 -0.76092798 4279036563
2.8897548 -0.80248636 -0.69239932 4279036563
2.7338731 -0.76845711 -0.76092798 4279036563
2.8888121 -0.81309658 -0.69284928 4279036563
2.736748 -0.7795831 -0.76248091 4279036563
2.8822081 -0.82210642 -0.69194949 4279036563
2.7488585 -0.79341727 -0.76662207 4279036563
2.8755765 -0.83108002 -0.69104964 4279036563
2.8763988 -0.84220785 -0.69194949 4279036563
2.8883877 -0.85667628 -0.69554865 4279036563
2.8892639 -0.86737037 -0.6964485 4279036563
2.8713028 -0.87291586 -0.69284928 4279036563
2.8663757 -0.88235986 -0.69239932 4279036563
2.8780055 -0.89750111 -0.69599855 4279036563
2.88043 -0.9093017 -0.6973483 4279036563
2.8753819 -0.9187575 -0.69689834 4279036563
2.8611939 -0.92469192 -0.69419897 4279036563
2.8431311 -0.92982769 -0.69059974 4279036563
2.8454182 -0.94158304 -0.69194949 4279036563
2.840266 -0.95089102 -0.69149953 4279036563
2.8313923 -0.95892417 -0.69014984 4279036563
2.8075809 -0.96234477 -0.68520093 4279036563
3.0428243 -0.56999874 -0.16224147 4288578264
2.9972022 -0.56253564 -0.053229842 4288578264
3.1176584 -0.59472513 -0.27767819 4288578264
3.0407145 -0.58114743 -0.16224147 4288578264
3.0109332 -0.57600027 -0.053509079 4288578264
3.2230844 -0.62475294 -0.51998824 4288578264
3.1666162 -0.61495423 -0.3960754 4288578264
3.0881827 -0.60028189 -0.27523783 4288578264
3.022984 -0.58870375 -0.1614041 4288578264
2.9951649 -0.58382875 -0.053264745 4288578264
3.2190571 -0.63505536 -0.51967537 4288578264
3.1411901 -0.62083298 -0.39315054 4288578264
3.0880229 -0.61144501 -0.27541214 4288578264
3.017097 -0.59794849 -0.16119476 4288578264
3.2071371 -0.64434254 -0.51811105 4288578264
3.1448421 -0.63296914 -0.39388174 4288578264
3.0781658 -0.62010801 -0.27471489 4288578264
3.0071599 -0.60689604 -0.16077606 4288578264
3.2068038 -0.65592945 -0.51842386 4288578264
3.1270559 -0.64075494 -0.39193183 4288578264
3.0701268 -0.62964821 -0.27419198 4288578264
3.0050232 -0.61738926 -0.16077606 4288578264
3.173552 -0.66067761 -0.51341796 4288578264
3.1170273 -0.65004545 -0.39095688 4288578264
3.0463452 -0.63641471 -0.27227452 4288578264
2.9969852 -0.62664878 -0.16046207 4288578264
3.161447 -0.67025638 -0.51185364 4288578264
3.0972624 -0.65721351 -0.38876322 4288578264
3.0441053 -0.64704454 -0.27227452 4288578264
2.9751337 -0.63346964 -0.15941535 4288578264
3.1475024 -0.67878926 -0.50997645 4288578264
3.0968897 -0.66843975 -0.38900697 4288578264
3.0379333 -0.65682441 -0.2719259 4288578264
2.9611921 -0.64131439 -0.15878731 4288578264
3.1355863 -0.68710881 -0.50841206 4288578264
3.0810833 -0.67572904 -0.38730082 4288578264
3.0279546 -0.66518497 -0.27122867 4288578264
2.951247 -0.6494137 -0.15836863 4288578264
3.1255774 -0.69578606 -0.5071606 4288578264
3.0749502 -0.68507922 -0.38681334 4288578264
3.000453 -0.66958106 -0.26896262 4288578264
2.9373822 -0.65658265 -0.15774059 4288578264
3.1039858 -0.70179081 -0.5040319 4288578264
3.0649168 -0.69351995 -0.38583836 4288578264
2.9768417 -0.67468286 -0.2670452 4288578264
2.9273977 -0.6645512 -0.1573219 4288578264
3.0857437 -0.71069837 -0.50152892 4288578264
3.046633 -0.7022506 -0.38388845 4288578264
2.9818745 -0.68841994 -0.26774243 4288578264
2.9052474 -0.67179745 -0.15627518 4288578264
3.0699053 -0.71777904 -0.49933887 4288578264
3.0268919 -0.70827919 -0.38169482 4288578264
2.9698763 -0.69603133 -0.26687086 4288578264
2.8971705 -0.68005866 -0.15596117 4288578264
3.0636644 -0.72704303 -0.49871314 4288578264
3.0108821 -0.71562749 -0.37998864 4288578264
2.9578602 -0.70357072 -0.26599932 4288578264
2.8832421 -0.68688512 -0.15533313 4288578264
3.0457447 -0.73403025 -0.49621019 4288578264
3.0045063 -0.72520155 -0.37950116 4288578264
2.9302096 -0.70780969 -0.2637333 4288578264
2.880827 -0.69694531 -0.15533313 4288578264
3.0297327 -0.74137086 -0.4940201 4288578264
2.9865322 -0.7319048 -0.37755126 4288578264
2.9217906 -0.71711993 -0.26321036 4288578264
2.8706181 -0.70509136 -0.15491444 4288578264
3.0135758 -0.74913448 -0.49182999 4288578264
2.9801066 -0.7413668 -0.37706378 4288578264
2.9192696 -0.72731447 -0.26321036 4288578264
2.8428226 -0.70932233 -0.15355371 4288578264
2.9937041 -0.75530016 -0.48901421 4288578264
2.9485002 -0.74499017 -0.37340769 4288578264
2.9051235 -0.73456979 -0.26216447 4288578264
2.8287122 -0.71629965 -0.15292569 4288578264
2.991183 -0.76522338 -0.48901421 4288578264
2.9344754 -0.75180763 -0.37194526 4288578264
2.9044716 -0.74520123 -0.26233879 4288578264
2.9808452 -0.77367485 -0.48776269 4288578264
2.9318333 -0.76204628 -0.37194526 4288578264
2.8710024 -0.74730498 -0.2595498 4288578264
2.9607983 -0.78006572 -0.48494691 4288578264
2.9214776 -0.77025133 -0.37097031 4288578264
2.8587444 -0.7547791 -0.25867823 4288578264
3.0198479 -0.80577725 -0.6075359 4288578264
2.9446983 -0.78682649 -0.48275682 4288578264
2.9109643 -0.77890158 -0.36999539 4288578264
2.8483939 -0.76269203 -0.25798097 4288578264
3.0018559 -0.81221151 -0.60448295 4288578264
2.9420729 -0.79658717 -0.48275682 4288578264
2.8892059 -0.78335577 -0.36755794 4288578264
2.8361003 -0.77001989 -0.25710943 4288578264
2.9839985 -0.8180092 -0.60143 4288578264
2.9373693 -0.80632913 -0.48244393 4288578264
2.8826258 -0.79238379 -0.3670705 4288578264
2.8335314 -0.77942055 -0.25710943 4288578264
2.9659925 -0.82421511 -0.59837705 4288578264
2.9212153 -0.81287062 -0.48025388 4288578264
2.8741055 -0.80084276 -0.36633927 4288578264
2.8116014 -0.7839554 -0.25536633 4288578264
2.9555383 -0.83243436 -0.59685057 4288578264
2.9031503 -0.81877303 -0.47775093 4288578264
2.8617408 -0.80817288 -0.36512056 4288578264
2.7992613 -0.7910558 -0.25449476 4288578264
2.9488389 -0.84166837 -0.59608734 4288578264
2.8888786 -0.82564497 -0.47587368 4288578264
2.8550854 -0.81706494 -0.36463311 4288578264
2.7926521 -0.79972523 -0.25414613 4288578264
2.938339 -0.8497749 -0.59456086 4288578264
2.8840816 -0.83517456 -0.47556084 4288578264
2.8407764 -0.82370913 -0.36317068 4288578264
2.9127464 -0.8534025 -0.58998144 4288578264
2.8697758 -0.84190041 -0.47368363 4288578264
2.8226471 -0.82914448 -0.36122078 4288578264
2.9022212 -0.86133015 -0.58845496 4288578264
2.8592455 -0.84966177 -0.47243217 4288578264
2.8102224 -0.83616173 -0.36000207 4288578264
2.8954365 -0.87032539 -0.58769172 4288578264
2.8431702 -0.855156 -0.47024205 4288578264
2.8131361 -0.84719336 -0.36073327 4288578264
2.8850214 -0.87763673 -0.58616525 4288578264
2.8193817 -0.8587442 -0.46680051 4288578264
2.7987692 -0.85353345 -0.35927087 4288578264
2.8780329 -0.88704824 -0.58540201 4288578264
2.8124404 -0.86790693 -0.46617478 4288578264
2.7805991 -0.85861242 -0.35732093 4288578264
2.859926 -0.89241076 -0.58234906 4288578264
2.8037369 -0.87595171 -0.46523616 4288578264
2.7622769 -0.86405694 -0.35537103 4288578264
2.8416603 -0.8981536 -0.57929617 4288578264
2.8005075 -0.88622195 -0.46523616 4288578264
2.8349259 -0.90637606 -0.57853287 4288578264
2.7749774 -0.88827729 -0.46148172 4288578264
2.8242736 -0.91384882 -0.57700646 4288578264
2.7626197 -0.89443225 -0.45991737 4288578264
2.8137636 -0.92076695 -0.57547992 4288578264
2.7576036 -0.90345502 -0.45960453 4288578264
2.7956226 -0.92564654 -0.57242703 4288578264
2.7600586 -0.91494024 -0.46054313 4288578264
2.7812052 -0.93165779 -0.57013732 4288578264
2.7703345 -0.93932348 -0.56861085 4288578264
2.7837524 -0.95472026 -0.57204539 4288578264
2.9452929 -0.20388877 -0.6816017 4280081077
2.9503942 -0.21459261 -0.68295145 4280081077
2.9612856 -0.22577901 -0.68565083 4280081077
2.9206598 -0.22319429 -0.56937408 4280081077
2.912035 -0.2327622 -0.56784761 4280081077
2.930769 -0.24455826 -0.57166374 4280081077
2.872009 -0.24066456 -0.45647582 4280081077
2.9494562 -0.25648791 -0.57547992 4280081077
2.9026377 -0.25343737 -0.46148172 4280081077
2.9524539 -0.26713574 -0.57624322 4280081077
2.9116175 -0.26395321 -0.46304604 4280081077
2.9515517 -0.27692491 -0.57624322 4280081077
2.9244454 -0.27541158 -0.46523616 4280081077
2.9583831 -0.28798693 -0.57776964 4280081077
2.9392445 -0.28664175 -0.46773914 4280081077
2.9769454 -0.29976264 -0.58158582 4280081077
2.938226 -0.29689986 -0.46773914 4280081077
2.8972738 -0.29378349 -0.35756469 4280081077
2.9915025 -0.31178039 -0.58463877 4280081077
2.9489596 -0.30838707 -0.46961632 4280081077
2.9061019 -0.30493084 -0.35878339 4280081077
3.0060115 -0.32390341 -0.58769172 4280081077
2.9557209 -0.31952825 -0.47086781 4280081077
2.9010727 -0.31464508 -0.35829589 4280081077
3.0048625 -0.33439437 -0.58769172 4280081077
2.9663668 -0.33115873 -0.472745 4280081077
2.9157386 -0.32653719 -0.36024579 4280081077
3.0153799 -0.34622496 -0.58998144 4280081077
2.9710798 -0.34218925 -0.47368363 4280081077
2.9323292 -0.33876342 -0.36243945 4280081077
3.0258505 -0.35813305 -0.59227115 4280081077
2.9737904 -0.35302392 -0.47430936 4280081077
2.9449267 -0.35064 -0.36414564 4280081077
2.8983181 -0.3456035 -0.25536633 4280081077
3.0401728 -0.37059349 -0.5953241 4280081077
2.9823439 -0.36460078 -0.47587368 4280081077
2.9476256 -0.36140072 -0.36463311 4280081077
2.912914 -0.35766089 -0.25676081 4280081077
3.0544446 -0.3831583 -0.59837705 4280081077
2.9987583 -0.37670448 -0.47868952 4280081077
2.95035 -0.37166962 -0.36512056 4280081077
2.9037416 -0.36682782 -0.25606358 4280081077
3.0569828 -0.39432031 -0.59914029 4280081077
3.0248525 -0.39071256 -0.48306966 4280081077
2.9628153 -0.38375089 -0.36682677 4280081077
2.9222012 -0.37952763 -0.25780669 4280081077
3.0710864 -0.40758845 -0.60219324 4280081077
3.0371075 -0.40361822 -0.48525977 4280081077
2.9712272 -0.39591855 -0.36804545 4280081077
2.916841 -0.3897078 -0.25745806 4280081077
3.087079 -0.42123064 -0.60562783 4280081077
3.031693 -0.4142122 -0.48463401 4280081077
2.9854901 -0.40896127 -0.36999539 4280081077
2.9311836 -0.40256462 -0.25885254 4280081077
3.0991242 -0.43445039 -0.60829914 4280081077
3.0536292 -0.42861608 -0.48838848 4280081077
2.9957654 -0.42156059 -0.37145779 4280081077
2.9494171 -0.41608846 -0.26059568 4280081077
3.0619674 -0.44014519 -0.4899528 4280081077
2.9943509 -0.43149257 -0.37145779 4280081077
2.9579554 -0.42677489 -0.26146722 4280081077
2.8998046 -0.41941822 -0.15355371 4280081077
3.0780008 -0.4534218 -0.49276862 4280081077
3.0046096 -0.4436821 -0.37292022 4280081077
2.9761572 -0.44001144 -0.26321036 4280081077
2.9200552 -0.4327586 -0.15470509 4280081077
3.0861657 -0.46563682 -0.49433297 4280081077
3.0207071 -0.456839 -0.37511387 4280081077
2.9706631 -0.44980091 -0.2628617 4280081077
2.9185266 -0.44294891 -0.15470509 4280081077
3.0903783 -0.47731128 -0.49527156 4280081077
3.040673 -0.47072107 -0.37779501 4280081077
2.9789197 -0.46169353 -0.2637333 4280081077
2.9288044 -0.45497328 -0.15533313 4280081077
3.0964983 -0.48932916 -0.49652308 4280081077
3.0527363 -0.48350593 -0.37950116 4280081077
3.002871 -0.47614536 -0.26599932 4280081077
2.9370611 -0.46676132 -0.15585649 4280081077
3.1182599 -0.50337249 -0.50027746 4280081077
3.051116 -0.49362651 -0.37950116 4280081077
3.0090578 -0.48789999 -0.26669657 4280081077
2.9512687 -0.47905853 -0.15669388 4280081077
3.1301267 -0.51650542 -0.50246757 4280081077
3.065042 -0.50686485 -0.38145107 4280081077
3.0250266 -0.50133228 -0.26826537 4280081077
2.9633706 -0.49164563 -0.15742657 4280081077
3.1437953 -0.53060448 -0.50497049 4280081077
3.078913 -0.52020645 -0.38340098 4280081077
3.023258 -0.51188856 -0.26826537 4280081077
2.969425 -0.50384003 -0.15784526 4280081077
3.1458175 -0.54224616 -0.50559622 4280081077
3.0985963 -0.53466362 -0.38608211 4280081077
3.0312691 -0.52413589 -0.26913694 4280081077
2.9912636 -0.51829404 -0.15910132 4280081077
3.1517842 -0.55404311 -0.50684774 4280081077
3.1085365 -0.54700011 -0.38754454 4280081077
3.0471735 -0.53729892 -0.27070573 4280081077
2.9914951 -0.52855808 -0.15920599 4280081077
3.1654844 -0.56727934 -0.50935066 4280081077
3.1124699 -0.55890012 -0.38827574 4280081077
3.0669458 -0.551278 -0.27262318 4280081077
3.0015199 -0.54059952 -0.15983403 4280081077
3.1887465 -0.58294362 -0.51341796 4280081077
3.1222157 -0.57190734 -0.3897382 4280081077
3.0845995 -0.56557345 -0.27436629 4280081077
3.013365 -0.55359966 -0.16056673 4280081077
3.2080534 -0.59805304 -0.51685953 4280081077
3.1397138 -0.58644712 -0.39217559 4280081077
3.1020901 -0.5805403 -0.2761094 4280081077
3.2097208 -0.6105454 -0.51748526 4280081077
3.151298 -0.60000223 -0.39388174 4280081077
