# .PCD v0.7 - Point Cloud Data file format
VERSION 0.7
FIELDS x y z intensity
SIZE 4 4 4 4
TYPE F F F F
COUNT 1 1 1 1
WIDTH 124
HEIGHT 1
VIEWPOINT 0 0 0 1 0 0 0
POINTS 124
DATA ascii
2.8102953 -0.9732067 -0.69791609 100
2.8179376 -0.96727645 -0.69538063 100
2.8255799 -0.96134621 -0.69284517 100
2.8332222 -0.95541596 -0.6903097 100
2.8408642 -0.94948578 -0.68777424 100
2.8485065 -0.94355553 -0.68523878 100
2.8561487 -0.93762529 -0.68270332 100
2.863791 -0.93169504 -0.68016785 100
2.8714333 -0.9257648 -0.67763239 100
2.8790755 -0.91983455 -0.67509693 100
2.8867176 -0.91390437 -0.67256147 100
2.8943598 -0.90797412 -0.670026 100
2.9020021 -0.90204388 -0.66749054 100
2.9096444 -0.89611363 -0.66495508 100
2.9172866 -0.89018339 -0.66241962 100
2.9249289 -0.88425314 -0.65988415 100
2.9325712 -0.8783229 -0.65734869 100
2.9402134 -0.87239271 -0.65481323 100
2.9478555 -0.86646247 -0.65227777 100
2.9554977 -0.86053222 -0.64974231 100
2.96314 -0.85460198 -0.64720684 100
2.9707823 -0.84867173 -0.64467138 100
2.9784245 -0.84274149 -0.64213592 100
2.9860668 -0.83681124 -0.63960046 100
2.9937091 -0.830881 -0.63706499 100
3.0013511 -0.82495075 -0.63452953 100
3.0089934 -0.81902057 -0.63199407 100
3.0166357 -0.81309032 -0.62945861 100
3.0242779 -0.80716008 -0.62692314 100
3.0319202 -0.80122983 -0.62438768 100
3.0395625 -0.79529965 -0.62185222 100
3.0472045 -0.7893694 -0.61931676 100
3.0548468 -0.78343916 -0.61678129 100
3.062489 -0.77750891 -0.61424583 100
3.0701313 -0.77157873 -0.61171043 100
3.0777736 -0.76564848 -0.60917497 100
3.0854158 -0.75971824 -0.6066395 100
3.0930579 -0.75378799 -0.60410404 100
3.1575317 -0.5047527 -0.60826051 100
3.1524229 -0.49678478 -0.61148727 100
3.1473141 -0.48881686 -0.61471403 100
3.1422052 -0.48084894 -0.61794078 100
3.1370964 -0.47288099 -0.62116754 100
3.1319876 -0.46491307 -0.6243943 100
3.1268787 -0.45694515 -0.62762105 100
3.1217699 -0.44897723 -0.63084781 100
3.1166611 -0.44100931 -0.63407457 100
3.1115522 -0.43304139 -0.63730133 100
3.1064434 -0.42507347 -0.64052808 100
3.1013346 -0.41710553 -0.64375484 100
3.0962257 -0.40913761 -0.64698154 100
3.0911169 -0.40116969 -0.65020829 100
3.0860081 -0.39320177 -0.65343505 100
3.0808992 -0.38523382 -0.65666181 100
3.0757904 -0.3772659 -0.65988857 100
3.0706816 -0.36929798 -0.66311532 100
3.0655725 -0.36133006 -0.66634208 100
3.0604637 -0.35336211 -0.66956884 100
3.0553548 -0.34539419 -0.67279559 100
3.050246 -0.33742628 -0.67602235 100
3.0451372 -0.32945833 -0.67924911 100
3.0400283 -0.32149041 -0.68247586 100
3.0349195 -0.31352249 -0.68570262 100
3.0298107 -0.30555454 -0.68892938 100
3.0247018 -0.29758665 -0.69215614 100
3.019593 -0.28961873 -0.69538289 100
3.0144842 -0.28165081 -0.69860965 100
3.0093753 -0.27368289 -0.70183641 100
3.0042665 -0.26571497 -0.70506316 100
2.9991577 -0.25774705 -0.70828992 100
3.2118201 -0.63049078 -0.4915567 100
3.2080927 -0.62962872 -0.48397395 100
3.204365 -0.62876672 -0.47639123 100
3.2006373 -0.62790465 -0.4688085 100
3.1969097 -0.62704265 -0.46122575 100
3.193182 -0.62618059 -0.45364302 100
3.1894546 -0.62531859 -0.44606027 100
3.1857269 -0.62445652 -0.43847755 100
3.1819992 -0.62359446 -0.43089482 100
3.1782715 -0.62273246 -0.42331207 100
3.1745439 -0.6218704 -0.41572934 100
3.1708162 -0.6210084 -0.40814662 100
3.1670887 -0.62014633 -0.40056387 100
3.1633611 -0.61928427 -0.39298114 100
3.1596334 -0.61842227 -0.38539839 100
3.1559057 -0.61756021 -0.37781566 100
3.152178 -0.61669821 -0.37023291 100
3.1484506 -0.61583614 -0.36265019 100
3.1447229 -0.61497408 -0.35506743 100
3.1409953 -0.61411208 -0.34748471 100
3.1372676 -0.61325002 -0.33990195 100
3.1335399 -0.61238801 -0.33231923 100
3.1298122 -0.61152595 -0.32473648 100
3.1260848 -0.61066389 -0.31715375 100
3.1223571 -0.60980189 -0.309571 100
3.1186295 -0.60893983 -0.30198827 100
3.1149018 -0.60807782 -0.29440552 100
3.1111741 -0.60721576 -0.2868228 100
3.1074467 -0.6063537 -0.27924007 100
3.103719 -0.6054917 -0.27165735 100
3.0999913 -0.60462964 -0.26407462 100
3.0962636 -0.60376763 -0.2564919 100
3.092536 -0.60290557 -0.24890916 100
3.0888085 -0.60204357 -0.24132644 100
3.0850809 -0.60118151 -0.2337437 100
3.0813532 -0.60031945 -0.22616097 100
3.0776255 -0.59945744 -0.21857825 100
3.0738978 -0.59859538 -0.21099553 100
3.0701704 -0.59773338 -0.20341279 100
3.0664427 -0.59687132 -0.19583006 100
3.0627151 -0.59600931 -0.18824734 100
3.0589874 -0.59514725 -0.1806646 100
3.0552597 -0.59428519 -0.17308187 100
3.0515323 -0.59342319 -0.16549915 100
3.0478046 -0.59256113 -0.15791643 100
3.0440769 -0.59169912 -0.15033369 100
3.0403492 -0.59083706 -0.14275096 100
3.0366216 -0.58997506 -0.13516824 100
3.0328941 -0.589113 -0.1275855 100
3.0291665 -0.58825094 -0.12000278 100
3.0254388 -0.58738893 -0.11242005 100
3.0217111 -0.58652687 -0.10483732 100
3.0179834 -0.58566487 -0.097254589 100
3.014256 -0.58480281 -0.089671865 100
