# .PCD v0.7 - Point Cloud Data file format
VERSION 0.7
FIELDS x y z intensity
SIZE 4 4 4 4
TYPE F F F F
COUNT 1 1 1 1
WIDTH 158
HEIGHT 1
VIEWPOINT 0 0 0 1 0 0 0
POINTS 158
DATA ascii
2.8255017 -0.96812707 -0.69990385 100
2.8319669 -0.96292472 -0.69761658 100
2.8384321 -0.95772237 -0.69532925 100
2.8448973 -0.95252001 -0.69304198 100
2.8513625 -0.94731766 -0.69075465 100
2.8578277 -0.94211531 -0.68846732 100
2.8642929 -0.93691289 -0.68618006 100
2.8707581 -0.93171054 -0.68389273 100
2.8772233 -0.92650819 -0.68160546 100
2.8836884 -0.92130584 -0.67931813 100
2.8901536 -0.91610348 -0.6770308 100
2.8966188 -0.91090113 -0.67474353 100
2.9030843 -0.90569878 -0.6724562 100
2.9095495 -0.90049642 -0.67016888 100
2.9160147 -0.89529407 -0.66788161 100
2.9224799 -0.89009166 -0.66559428 100
2.9289451 -0.8848893 -0.66330701 100
2.9354103 -0.87968695 -0.66101968 100
2.9418755 -0.8744846 -0.65873235 100
2.9483407 -0.86928225 -0.65644509 100
2.9548059 -0.86407989 -0.65415776 100
2.961271 -0.85887754 -0.65187043 100
2.9677362 -0.85367513 -0.64958316 100
2.9742017 -0.84847277 -0.64729583 100
2.9806669 -0.84327042 -0.6450085 100
2.9871321 -0.83806807 -0.64272124 100
2.9935973 -0.83286572 -0.64043391 100
3.0000625 -0.82766336 -0.63814664 100
3.0065277 -0.82246101 -0.63585931 100
3.0129929 -0.81725866 -0.63357204 100
3.0194581 -0.8120563 -0.63128471 100
3.0259233 -0.80685395 -0.62899739 100
3.0323884 -0.8016516 -0.62671012 100
3.0388536 -0.79644924 -0.62442279 100
3.0453188 -0.79124689 -0.62213552 100
3.051784 -0.78604454 -0.61984819 100
3.0582492 -0.78084219 -0.61756086 100
3.0647144 -0.77563983 -0.61527359 100
3.0711796 -0.77043748 -0.61298627 100
3.0776448 -0.76523513 -0.610699 100
3.08411 -0.76003277 -0.60841167 100
3.0905752 -0.75483042 -0.6061244 100
3.0970407 -0.74962801 -0.60383707 100
3.1035058 -0.74442565 -0.60154974 100
3.109971 -0.7392233 -0.59926248 100
3.1164362 -0.73402095 -0.59697515 100
3.1229014 -0.7288186 -0.59468788 100
3.1293666 -0.72361624 -0.59240055 100
3.1358318 -0.71841389 -0.59011328 100
3.142297 -0.71321154 -0.58782595 100
3.1487622 -0.70800918 -0.58553863 100
3.1552274 -0.70280683 -0.58325136 100
3.1616926 -0.69760448 -0.58096403 100
3.1681578 -0.69240212 -0.57867676 100
3.174623 -0.68719977 -0.57638943 100
3.1810882 -0.68199742 -0.5741021 100
3.1875534 -0.67679507 -0.57181484 100
3.1940186 -0.67159271 -0.56952751 100
3.1536674 -0.50084239 -0.60613203 100
3.1495023 -0.49442318 -0.60867918 100
3.1453371 -0.488004 -0.61122638 100
3.1411717 -0.48158479 -0.61377352 100
3.1370065 -0.47516561 -0.61632067 100
3.1328413 -0.46874642 -0.61886787 100
3.1286762 -0.46232721 -0.62141502 100
3.124511 -0.45590803 -0.62396222 100
3.1203456 -0.44948882 -0.62650937 100
3.1161804 -0.44306964 -0.62905657 100
3.1120152 -0.43665043 -0.63160372 100
3.1078501 -0.43023124 -0.63415092 100
3.1036847 -0.42381206 -0.63669807 100
3.0995195 -0.41739285 -0.63924527 100
3.0953543 -0.41097364 -0.64179242 100
3.0911891 -0.40455446 -0.64433956 100
3.0870237 -0.39813524 -0.64688677 100
3.0828586 -0.39171606 -0.64943391 100
3.0786934 -0.38529685 -0.65198112 100
3.0745282 -0.37887764 -0.65452826 100
3.0703628 -0.37245846 -0.65707546 100
3.0661976 -0.36603925 -0.65962261 100
3.0620325 -0.35962006 -0.66216981 100
3.0578673 -0.35320085 -0.66471696 100
3.0537019 -0.34678167 -0.66726416 100
3.0495367 -0.34036246 -0.66981131 100
3.0453715 -0.33394328 -0.67235851 100
3.0412064 -0.32752407 -0.67490566 100
3.0370409 -0.32110488 -0.6774528 100
3.0328758 -0.3146857 -0.68000001 100
3.0287106 -0.30826652 -0.68254715 100
3.0245454 -0.30184731 -0.68509436 100
3.0203803 -0.29542813 -0.6876415 100
3.0162148 -0.28900895 -0.69018871 100
3.0120497 -0.28258976 -0.69273585 100
3.0078845 -0.27617055 -0.695283 100
3.0037193 -0.26975137 -0.6978302 100
2.9995539 -0.26333219 -0.70037735 100
2.9953887 -0.25691301 -0.70292455 100
2.9912236 -0.25049379 -0.70547169 100
2.9870584 -0.24407461 -0.70801884 100
2.9828932 -0.23765543 -0.71056604 100
3.2279618 -0.63144255 -0.52780813 100
3.2242191 -0.63055956 -0.520118 100
3.2204762 -0.62967658 -0.51242787 100
3.2167332 -0.62879366 -0.50473773 100
3.2129903 -0.62791067 -0.4970476 100
3.2092474 -0.62702769 -0.48935747 100
3.2055044 -0.62614471 -0.48166734 100
3.2017615 -0.62526172 -0.47397721 100
3.1980186 -0.6243788 -0.46628708 100
3.1942756 -0.62349582 -0.45859694 100
3.1905327 -0.62261283 -0.45090684 100
3.1867898 -0.62172985 -0.44321671 100
3.1830468 -0.62084687 -0.43552658 100
3.1793039 -0.61996388 -0.42783645 100
3.175561 -0.61908096 -0.42014632 100
3.171818 -0.61819798 -0.41245618 100
3.1680751 -0.61731499 -0.40476605 100
3.1643324 -0.61643201 -0.39707592 100
3.1605895 -0.61554903 -0.38938579 100
3.1568465 -0.61466604 -0.38169566 100
3.1531036 -0.61378306 -0.37400553 100
3.1493607 -0.61290014 -0.36631539 100
3.1456177 -0.61201715 -0.35862526 100
3.1418748 -0.61113417 -0.35093513 100
3.1381319 -0.61025119 -0.343245 100
3.1343889 -0.60936821 -0.33555487 100
3.130646 -0.60848522 -0.32786474 100
3.1269031 -0.6076023 -0.3201746 100
3.1231601 -0.60671932 -0.3124845 100
3.1194172 -0.60583633 -0.30479437 100
3.1156743 -0.60495335 -0.29710427 100
3.1119313 -0.60407037 -0.28941414 100
3.1081884 -0.60318744 -0.28172401 100
3.1044457 -0.60230446 -0.2740339 100
3.1007028 -0.60142148 -0.26634377 100
3.0969598 -0.60053849 -0.25865364 100
3.0932169 -0.59965551 -0.25096354 100
3.089474 -0.59877253 -0.24327341 100
3.085731 -0.5978896 -0.23558329 100
3.0819881 -0.59700662 -0.22789317 100
3.0782452 -0.59612364 -0.22020304 100
3.0745022 -0.59524065 -0.21251293 100
3.0707593 -0.59435767 -0.20482281 100
3.0670164 -0.59347475 -0.19713269 100
3.0632734 -0.59259176 -0.18944256 100
3.0595305 -0.59170878 -0.18175244 100
3.0557878 -0.5908258 -0.17406233 100
3.0520449 -0.58994281 -0.16637219 100
3.0483019 -0.58905989 -0.15868208 100
3.044559 -0.58817691 -0.15099196 100
3.0408161 -0.58729392 -0.14330184 100
3.0370731 -0.58641094 -0.13561171 100
3.0333302 -0.58552796 -0.1279216 100
3.0295873 -0.58464497 -0.12023148 100
3.0258443 -0.58376205 -0.11254136 100
3.0221014 -0.58287907 -0.10485124 100
3.0183585 -0.58199608 -0.097161114 100
3.0146155 -0.5811131 -0.089470997 100
