# .PCD v0.7 - Point Cloud Data file format
VERSION 0.7
FIELDS x y z intensity
SIZE 4 4 4 4
TYPE F F F F
COUNT 1 1 1 1
WIDTH 169
HEIGHT 1
VIEWPOINT 0 0 0 1 0 0 0
POINTS 169
DATA ascii
2.8170693 -0.97239667 -0.70127124 100
2.8235836 -0.96725303 -0.69897085 100
2.8300979 -0.96210939 -0.69667047 100
2.8366125 -0.95696574 -0.69437015 100
2.8431268 -0.9518221 -0.69206977 100
2.8496411 -0.94667846 -0.68976945 100
2.8561554 -0.94153482 -0.68746907 100
2.8626697 -0.93639117 -0.68516868 100
2.869184 -0.93124753 -0.68286836 100
2.8756983 -0.92610389 -0.68056798 100
2.8822126 -0.92096025 -0.67826766 100
2.8887272 -0.91581666 -0.67596728 100
2.8952415 -0.91067302 -0.67366689 100
2.9017558 -0.90552932 -0.67136657 100
2.9082701 -0.90038568 -0.66906619 100
2.9147844 -0.89524204 -0.66676587 100
2.9212987 -0.89009839 -0.66446549 100
2.9278131 -0.88495475 -0.66216511 100
2.9343276 -0.87981111 -0.65986478 100
2.9408419 -0.87466747 -0.6575644 100
2.9473562 -0.86952382 -0.65526402 100
2.9538705 -0.86438018 -0.6529637 100
2.9603848 -0.85923654 -0.65066332 100
2.9668992 -0.8540929 -0.64836299 100
2.9734135 -0.84894925 -0.64606261 100
2.979928 -0.84380561 -0.64376223 100
2.9864423 -0.83866197 -0.64146191 100
2.9929566 -0.83351833 -0.63916153 100
2.9994709 -0.82837468 -0.63686121 100
3.0059853 -0.82323104 -0.63456082 100
3.0124996 -0.8180874 -0.63226044 100
3.0190139 -0.81294382 -0.62996012 100
3.0255282 -0.80780017 -0.62765974 100
3.0320425 -0.80265653 -0.62535942 100
3.0385568 -0.79751289 -0.62305903 100
3.0450714 -0.79236925 -0.62075871 100
3.0515857 -0.7872256 -0.61845833 100
3.0581 -0.78208196 -0.61615795 100
3.0646143 -0.77693832 -0.61385763 100
3.0711286 -0.77179468 -0.61155725 100
3.0776429 -0.76665103 -0.60925692 100
3.0841572 -0.76150739 -0.60695654 100
3.0906715 -0.75636381 -0.60465622 100
3.0971859 -0.75122017 -0.60235584 100
3.1037002 -0.74607652 -0.60005546 100
3.1102147 -0.74093288 -0.59775513 100
3.116729 -0.73578924 -0.59545475 100
3.1232433 -0.7306456 -0.59315443 100
3.1297576 -0.72550195 -0.59085405 100
3.136272 -0.72035831 -0.58855373 100
3.1427863 -0.71521467 -0.58625335 100
3.1493006 -0.71007103 -0.58395296 100
3.1558149 -0.70492738 -0.58165264 100
3.1623292 -0.6997838 -0.57935226 100
3.1688435 -0.69464016 -0.57705194 100
3.1753581 -0.68949652 -0.57475156 100
3.1818724 -0.68435287 -0.57245123 100
3.1883867 -0.67920923 -0.57015085 100
3.229157 -0.63380361 -0.52513492 100
3.2253726 -0.63290745 -0.51747078 100
3.2215879 -0.63201129 -0.50980657 100
3.2178035 -0.6311152 -0.50214237 100
3.2140188 -0.63021904 -0.49447823 100
3.2102344 -0.62932295 -0.48681405 100
3.20645 -0.62842679 -0.47914985 100
3.2026653 -0.62753063 -0.47148567 100
3.1988809 -0.62663454 -0.4638215 100
3.1950965 -0.62573838 -0.45615733 100
3.1913118 -0.62484229 -0.44849315 100
3.1875274 -0.62394613 -0.44082898 100
3.1837428 -0.62304997 -0.43316481 100
3.1799583 -0.62215388 -0.4255006 100
3.1761739 -0.62125772 -0.41783643 100
3.1723893 -0.62036157 -0.41017225 100
3.1686049 -0.61946547 -0.40250808 100
3.1648202 -0.61856931 -0.39484388 100
3.1610358 -0.61767322 -0.3871797 100
3.1572514 -0.61677706 -0.37951553 100
3.1534667 -0.61588091 -0.37185133 100
3.1496823 -0.61498481 -0.36418715 100
3.1458976 -0.61408865 -0.35652298 100
3.1421132 -0.6131925 -0.3488588 100
3.1383288 -0.6122964 -0.3411946 100
3.1345441 -0.61140025 -0.33353043 100
3.1307597 -0.61050415 -0.32586625 100
3.1269753 -0.60960799 -0.31820208 100
3.1231906 -0.60871184 -0.3105379 100
3.1194062 -0.60781574 -0.30287373 100
3.1156216 -0.60691959 -0.29520956 100
3.1118371 -0.60602349 -0.28754541 100
3.1080527 -0.60512733 -0.27988124 100
3.1042681 -0.60423118 -0.27221707 100
3.1004837 -0.60333508 -0.26455289 100
3.0966992 -0.60243893 -0.25688872 100
3.0929146 -0.60154283 -0.24922454 100
3.0891302 -0.60064667 -0.24156037 100
3.0853457 -0.59975052 -0.2338962 100
3.0815611 -0.59885442 -0.22623204 100
3.0777767 -0.59795827 -0.21856786 100
3.073992 -0.59706217 -0.21090369 100
3.0702076 -0.59616601 -0.20323952 100
3.0664232 -0.59526986 -0.19557534 100
3.0626385 -0.59437376 -0.18791117 100
3.0588541 -0.59347761 -0.18024701 100
3.0550697 -0.59258151 -0.17258283 100
3.051285 -0.59168535 -0.16491866 100
3.0475006 -0.5907892 -0.15725449 100
3.043716 -0.5898931 -0.14959031 100
3.0399315 -0.58899695 -0.14192615 100
3.0361471 -0.58810085 -0.13426198 100
3.0323625 -0.58720469 -0.12659781 100
3.028578 -0.58630854 -0.11893363 100
3.0247936 -0.58541244 -0.11126947 100
3.021009 -0.58451629 -0.10360529 100
3.0172246 -0.58362019 -0.095941119 100
3.2160392 -0.59678108 -0.56736797 100
3.2116559 -0.59002376 -0.57009315 100
3.2072728 -0.58326644 -0.57281834 100
3.2028897 -0.57650912 -0.57554352 100
3.1985064 -0.56975174 -0.57826871 100
3.1941233 -0.56299442 -0.58099389 100
3.1897402 -0.5562371 -0.58371907 100
3.1853569 -0.54947978 -0.58644426 100
3.1809738 -0.5427224 -0.5891695 100
3.1765907 -0.53596509 -0.59189469 100
3.1722074 -0.52920777 -0.59461987 100
3.1678243 -0.52245045 -0.59734505 100
3.1634412 -0.51569307 -0.60007024 100
3.1590579 -0.50893575 -0.60279542 100
3.1546748 -0.50217843 -0.60552061 100
3.1502917 -0.49542108 -0.60824579 100
3.1459084 -0.48866373 -0.61097097 100
3.1415253 -0.48190638 -0.61369616 100
3.1371422 -0.47514907 -0.61642134 100
3.1327589 -0.46839172 -0.61914653 100
3.1283758 -0.46163437 -0.62187171 100
3.1239927 -0.45487705 -0.62459695 100
3.1196094 -0.4481197 -0.62732214 100
3.1152263 -0.44136235 -0.63004732 100
3.1108432 -0.43460503 -0.63277251 100
3.1064599 -0.42784768 -0.63549769 100
3.1020768 -0.42109036 -0.63822287 100
3.0976937 -0.41433302 -0.64094806 100
3.0933104 -0.4075757 -0.64367324 100
3.0889273 -0.40081838 -0.64639843 100
3.0845442 -0.39406106 -0.64912361 100
3.0801609 -0.38730371 -0.65184879 100
3.0757778 -0.38054639 -0.65457398 100
3.0713947 -0.37378907 -0.65729916 100
3.0670116 -0.36703172 -0.66002434 100
3.0626283 -0.3602744 -0.66274953 100
3.0582452 -0.35351709 -0.66547471 100
3.0538621 -0.34675974 -0.6681999 100
3.0494788 -0.34000242 -0.67092508 100
3.0450957 -0.3332451 -0.67365026 100
3.0407126 -0.32648775 -0.67637545 100
3.0363293 -0.31973043 -0.67910063 100
3.0319462 -0.31297311 -0.68182582 100
3.0275631 -0.30621576 -0.684551 100
3.0231798 -0.29945844 -0.68727618 100
3.0187967 -0.29270113 -0.69000137 100
3.0144136 -0.28594378 -0.69272655 100
3.0100305 -0.27918646 -0.69545174 100
3.0056472 -0.27242914 -0.69817692 100
3.0012641 -0.26567179 -0.7009021 100
2.996881 -0.25891447 -0.70362729 100
2.9924977 -0.25215715 -0.70635247 100
2.9881146 -0.24539982 -0.70907766 100
2.9837315 -0.23864248 -0.71180284 100
