# .PCD v0.7 - Point Cloud Data file format
VERSION 0.7
FIELDS x y z intensity
SIZE 4 4 4 4
TYPE F F F F
COUNT 1 1 1 1
WIDTH 155
HEIGHT 1
VIEWPOINT 0 0 0 1 0 0 0
POINTS 155
DATA ascii
2.6006055 -1.4694287 -0.71570021 100
2.6079507 -1.4658282 -0.71316254 100
2.6152959 -1.4622276 -0.71062487 100
2.6226413 -1.4586271 -0.70808727 100
2.6299865 -1.4550265 -0.7055496 100
2.6373317 -1.451426 -0.70301199 100
2.6446769 -1.4478254 -0.70047432 100
2.6520221 -1.444225 -0.69793665 100
2.6593673 -1.4406244 -0.69539905 100
2.6667125 -1.4370239 -0.69286138 100
2.6740577 -1.4334233 -0.69032371 100
2.6814029 -1.4298227 -0.6877861 100
2.6887481 -1.4262222 -0.68524843 100
2.6960933 -1.4226216 -0.68271083 100
2.7034385 -1.4190211 -0.68017316 100
2.710784 -1.4154205 -0.67763549 100
2.7181292 -1.4118201 -0.67509788 100
2.7254744 -1.4082195 -0.67256021 100
2.7328196 -1.404619 -0.67002255 100
2.7401648 -1.4010184 -0.66748494 100
2.74751 -1.3974179 -0.66494727 100
2.7548552 -1.3938173 -0.6624096 100
2.7622004 -1.3902168 -0.659872 100
2.7695456 -1.3866162 -0.65733433 100
2.7768908 -1.3830158 -0.65479672 100
2.784236 -1.3794152 -0.65225905 100
2.7915814 -1.3758147 -0.64972138 100
2.7989266 -1.3722141 -0.64718378 100
2.8062718 -1.3686136 -0.64464611 100
2.813617 -1.365013 -0.6421085 100
2.8209622 -1.3614125 -0.63957083 100
2.8283074 -1.3578119 -0.63703316 100
2.8356526 -1.3542114 -0.63449556 100
2.8429978 -1.3506109 -0.63195789 100
2.850343 -1.3470104 -0.62942028 100
2.8576882 -1.3434098 -0.62688261 100
2.8650334 -1.3398093 -0.624345 100
2.8723786 -1.3362087 -0.62180734 100
2.8797238 -1.3326082 -0.61926967 100
2.887069 -1.3290076 -0.61673206 100
2.8944142 -1.3254071 -0.61419439 100
2.9017594 -1.3218066 -0.61165679 100
2.9091046 -1.3182061 -0.60911912 100
2.9164498 -1.3146055 -0.60658145 100
2.923795 -1.311005 -0.60404384 100
2.9311402 -1.3074044 -0.60150617 100
2.9384854 -1.3038039 -0.59896857 100
2.9458308 -1.3002033 -0.5964309 100
2.953176 -1.2966028 -0.59389329 100
2.9605212 -1.2930022 -0.59135562 100
2.9678664 -1.2894018 -0.58881795 100
2.9752116 -1.2858012 -0.58628035 100
2.9825568 -1.2822007 -0.58374268 100
2.989902 -1.2786001 -0.58120507 100
2.9972472 -1.2749996 -0.5786674 100
3.0045924 -1.271399 -0.57612979 100
3.0390358 -1.2417928 -0.52519208 100
3.0354116 -1.2406516 -0.51749152 100
3.0317874 -1.2395104 -0.5097909 100
3.028163 -1.2383693 -0.50209033 100
3.0245388 -1.2372282 -0.49438971 100
3.0209146 -1.2360871 -0.48668912 100
3.0172904 -1.2349459 -0.47898853 100
3.0136659 -1.2338047 -0.47128794 100
3.0100417 -1.2326636 -0.46358737 100
3.0064175 -1.2315224 -0.45588678 100
3.0027931 -1.2303813 -0.44818619 100
2.9991689 -1.2292402 -0.4404856 100
2.9955447 -1.228099 -0.432785 100
2.9919205 -1.2269579 -0.42508441 100
2.988296 -1.2258167 -0.41738382 100
2.9846718 -1.2246755 -0.40968323 100
2.9810476 -1.2235345 -0.40198264 100
2.9774232 -1.2223933 -0.39428204 100
2.973799 -1.2212521 -0.38658142 100
2.9701748 -1.220111 -0.37888083 100
2.9665506 -1.2189698 -0.37118024 100
2.9629261 -1.2178286 -0.36347964 100
2.9593019 -1.2166876 -0.35577905 100
2.9556777 -1.2155464 -0.34807846 100
2.9520533 -1.2144053 -0.34037787 100
2.9484291 -1.2132641 -0.33267727 100
2.9448049 -1.2121229 -0.32497668 100
2.9411807 -1.2109818 -0.31727609 100
2.9375563 -1.2098407 -0.30957553 100
2.9339321 -1.2086995 -0.30187494 100
2.9303079 -1.2075584 -0.29417434 100
2.9266834 -1.2064172 -0.28647378 100
2.9230592 -1.2052761 -0.27877319 100
2.919435 -1.2041349 -0.2710726 100
2.9158108 -1.2029938 -0.26337203 100
2.9121864 -1.2018527 -0.25567144 100
2.9085622 -1.2007115 -0.24797085 100
2.904938 -1.1995703 -0.24027027 100
2.9013138 -1.1984292 -0.23256969 100
2.8976893 -1.197288 -0.2248691 100
2.8940651 -1.196147 -0.21716852 100
2.8904409 -1.1950058 -0.20946793 100
2.8868167 -1.1938646 -0.20176736 100
2.8831923 -1.1927235 -0.19406678 100
2.8795681 -1.1915823 -0.18636619 100
2.8759439 -1.1904411 -0.17866561 100
2.8723195 -1.1893001 -0.17096502 100
2.8686953 -1.1881589 -0.16326444 100
2.8650711 -1.1870178 -0.15556386 100
2.8614469 -1.1858766 -0.14786327 100
2.8578224 -1.1847354 -0.14016269 100
2.8541982 -1.1835943 -0.1324621 100
2.850574 -1.1824532 -0.12476152 100
2.8469498 -1.181312 -0.11706094 100
2.8433254 -1.1801709 -0.10936035 100
2.8397012 -1.1790297 -0.10165977 100
2.836077 -1.1778886 -0.09395919 100
2.9983742 -1.0955492 -0.60766292 100
2.9956732 -1.0883155 -0.61000174 100
2.9929721 -1.0810817 -0.61234057 100
2.9902711 -1.073848 -0.6146794 100
2.98757 -1.0666143 -0.61701822 100
2.984869 -1.0593805 -0.61935705 100
2.982168 -1.0521468 -0.62169588 100
2.9794669 -1.0449131 -0.6240347 100
2.9767659 -1.0376793 -0.62637353 100
2.9740646 -1.0304456 -0.62871236 100
2.9713635 -1.0232118 -0.63105118 100
2.9686625 -1.0159781 -0.63339001 100
2.9659615 -1.0087444 -0.63572884 100
2.9632604 -1.0015106 -0.63806766 100
2.9605594 -0.99427688 -0.64040655 100
2.9578583 -0.98704314 -0.64274538 100
2.9551573 -0.9798094 -0.6450842 100
2.9524562 -0.97257566 -0.64742303 100
2.9497552 -0.96534193 -0.64976186 100
2.9470541 -0.95810819 -0.65210068 100
2.9443531 -0.95087445 -0.65443951 100
2.9416521 -0.94364071 -0.65677834 100
2.9389508 -0.93640697 -0.65911716 100
2.9362497 -0.92917323 -0.66145599 100
2.9335487 -0.92193949 -0.66379482 100
2.9308476 -0.91470575 -0.66613364 100
2.9281466 -0.90747201 -0.66847247 100
2.9254456 -0.90023828 -0.6708113 100
2.9227445 -0.89300454 -0.67315012 100
2.9200435 -0.88577086 -0.67548895 100
2.9173424 -0.87853712 -0.67782778 100
2.9146414 -0.87130338 -0.6801666 100
2.9119403 -0.86406964 -0.68250543 100
2.9092393 -0.8568359 -0.68484426 100
2.9065382 -0.84960216 -0.68718308 100
2.9038372 -0.84236842 -0.68952191 100
2.9011359 -0.83513474 -0.69186074 100
2.8984349 -0.82790101 -0.69419956 100
2.8957338 -0.82066727 -0.69653839 100
2.8930328 -0.81343353 -0.69887722 100
2.8903317 -0.80619979 -0.70121604 100
2.8876307 -0.79896605 -0.70355487 100
