# .PCD v0.7 - Point Cloud Data file format
VERSION 0.7
FIELDS x y z intensity
SIZE 4 4 4 4
TYPE F F F F
COUNT 1 1 1 1
WIDTH 144
HEIGHT 1
VIEWPOINT 0 0 0 1 0 0 0
POINTS 144
DATA ascii
2.6086972 -1.4686838 -0.71719891 100
2.6159897 -1.4650494 -0.71461755 100
2.623282 -1.4614149 -0.71203613 100
2.6305745 -1.4577805 -0.70945477 100
2.6378667 -1.4541459 -0.70687342 100
2.6451592 -1.4505115 -0.704292 100
2.6524515 -1.446877 -0.70171064 100
2.659744 -1.4432425 -0.69912922 100
2.6670363 -1.4396081 -0.69654787 100
2.6743286 -1.4359736 -0.69396651 100
2.6816211 -1.4323392 -0.69138509 100
2.6889133 -1.4287047 -0.68880373 100
2.6962059 -1.4250702 -0.68622231 100
2.7034981 -1.4214357 -0.68364096 100
2.7107906 -1.4178013 -0.6810596 100
2.7180829 -1.4141668 -0.67847818 100
2.7253754 -1.4105324 -0.67589682 100
2.7326677 -1.4068979 -0.67331541 100
2.7399602 -1.4032634 -0.67073405 100
2.7472525 -1.399629 -0.66815263 100
2.754545 -1.3959944 -0.66557127 100
2.7618372 -1.39236 -0.66298991 100
2.7691298 -1.3887255 -0.6604085 100
2.776422 -1.3850911 -0.65782714 100
2.7837145 -1.3814566 -0.65524572 100
2.7910068 -1.3778222 -0.65266436 100
2.7982991 -1.3741877 -0.65008295 100
2.8055916 -1.3705531 -0.64750159 100
2.8128839 -1.3669187 -0.64492023 100
2.8201764 -1.3632842 -0.64233881 100
2.8274686 -1.3596498 -0.63975745 100
2.8347611 -1.3560153 -0.6371761 100
2.8420534 -1.3523809 -0.63459468 100
2.8493459 -1.3487464 -0.63201332 100
2.8566382 -1.345112 -0.62943196 100
2.8639305 -1.3414775 -0.62685055 100
2.871223 -1.3378431 -0.62426919 100
2.8785152 -1.3342086 -0.62168777 100
2.8858078 -1.330574 -0.61910641 100
2.8931 -1.3269396 -0.61652505 100
2.9003925 -1.3233051 -0.61394364 100
2.9076848 -1.3196707 -0.61136228 100
2.9149771 -1.3160362 -0.60878092 100
2.9222696 -1.3124018 -0.6061995 100
2.9295619 -1.3087673 -0.60361814 100
2.9368544 -1.3051329 -0.60103679 100
2.9441466 -1.3014984 -0.59845537 100
2.9514391 -1.297864 -0.59587401 100
2.9587314 -1.2942295 -0.59329265 100
2.9660237 -1.2905949 -0.59071124 100
2.9733162 -1.2869605 -0.58812988 100
2.9806085 -1.283326 -0.58554846 100
2.987901 -1.2796916 -0.5829671 100
2.9951932 -1.2760571 -0.58038574 100
3.0024858 -1.2724227 -0.57780433 100
3.009778 -1.2687882 -0.57522297 100
3.0420589 -1.2401149 -0.52573079 100
3.0385299 -1.2390229 -0.5183568 100
3.0350008 -1.2379308 -0.51098281 100
3.031472 -1.2368387 -0.50360888 100
3.0279429 -1.2357466 -0.49623492 100
3.0244138 -1.2346545 -0.48886096 100
3.0208848 -1.2335625 -0.48148701 100
3.0173557 -1.2324704 -0.47411305 100
3.0138266 -1.2313783 -0.46673909 100
3.0102975 -1.2302862 -0.45936513 100
3.0067687 -1.2291942 -0.45199117 100
3.0032396 -1.2281021 -0.44461721 100
2.9997106 -1.22701 -0.43724325 100
2.9961815 -1.2259179 -0.42986929 100
2.9926524 -1.2248259 -0.42249531 100
2.9891233 -1.2237338 -0.41512135 100
2.9855945 -1.2226417 -0.40774739 100
2.9820654 -1.2215496 -0.40037343 100
2.9785364 -1.2204576 -0.39299947 100
2.9750073 -1.2193655 -0.38562548 100
2.9714782 -1.2182734 -0.37825152 100
2.9679492 -1.2171813 -0.37087756 100
2.9644201 -1.2160892 -0.36350361 100
2.9608912 -1.2149971 -0.35612965 100
2.9573622 -1.213905 -0.34875569 100
2.9538331 -1.2128129 -0.3413817 100
2.950304 -1.2117208 -0.33400777 100
2.946775 -1.2106287 -0.32663381 100
2.9432459 -1.2095367 -0.31925985 100
2.9397171 -1.2084446 -0.31188589 100
2.936188 -1.2073525 -0.30451193 100
2.9326589 -1.2062604 -0.29713798 100
2.9291298 -1.2051684 -0.28976405 100
2.9256008 -1.2040763 -0.28239009 100
2.9220717 -1.2029842 -0.27501613 100
2.9185429 -1.2018921 -0.26764217 100
2.9150138 -1.2008001 -0.26026821 100
2.9114847 -1.199708 -0.25289428 100
2.9079556 -1.1986159 -0.24552032 100
2.9044266 -1.1975238 -0.23814636 100
2.9008975 -1.1964318 -0.23077241 100
2.8973687 -1.1953397 -0.22339846 100
2.8938396 -1.1942476 -0.2160245 100
2.8903105 -1.1931555 -0.20865054 100
2.8867815 -1.1920635 -0.2012766 100
2.8832524 -1.1909714 -0.19390264 100
3.0001533 -1.0964224 -0.60555077 100
2.9973583 -1.089201 -0.60784924 100
2.9945631 -1.0819794 -0.61014771 100
2.9917679 -1.0747579 -0.61244619 100
2.9889727 -1.0675364 -0.61474472 100
2.9861774 -1.0603149 -0.6170432 100
2.9833822 -1.0530933 -0.61934167 100
2.9805872 -1.0458717 -0.62164015 100
2.977792 -1.0386503 -0.62393862 100
2.9749968 -1.0314287 -0.62623709 100
2.9722016 -1.0242072 -0.62853557 100
2.9694064 -1.0169857 -0.63083404 100
2.9666111 -1.0097642 -0.63313258 100
2.9638162 -1.0025426 -0.63543105 100
2.9610209 -0.99532109 -0.63772953 100
2.9582257 -0.98809952 -0.640028 100
2.9554305 -0.980878 -0.64232647 100
2.9526353 -0.97365648 -0.64462495 100
2.9498401 -0.96643496 -0.64692348 100
2.9470448 -0.95921338 -0.64922196 100
2.9442499 -0.95199186 -0.65152043 100
2.9414546 -0.94477034 -0.65381891 100
2.9386594 -0.93754882 -0.65611738 100
2.9358642 -0.93032724 -0.65841585 100
2.933069 -0.92310572 -0.66071439 100
2.9302738 -0.9158842 -0.66301286 100
2.9274786 -0.90866268 -0.66531134 100
2.9246836 -0.90144116 -0.66760981 100
2.9218884 -0.89421964 -0.66990829 100
2.9190931 -0.88699812 -0.67220676 100
2.9162979 -0.8797766 -0.67450523 100
2.9135027 -0.87255508 -0.67680371 100
2.9107077 -0.86533356 -0.67910218 100
2.9079125 -0.85811198 -0.68140072 100
2.9051173 -0.85089046 -0.68369919 100
2.9023221 -0.84366894 -0.68599766 100
2.8995268 -0.83644742 -0.68829614 100
2.8967316 -0.8292259 -0.69059461 100
2.8939366 -0.82200438 -0.69289309 100
2.8911414 -0.81478286 -0.69519156 100
2.8883462 -0.80756134 -0.69749004 100
2.885551 -0.80033982 -0.69978851 100
