# .PCD v0.7 - Point Cloud Data file format
VERSION 0.7
FIELDS x y z intensity
SIZE 4 4 4 4
TYPE F F F F
COUNT 1 1 1 1
WIDTH 112
HEIGHT 1
VIEWPOINT 0 0 0 1 0 0 0
POINTS 112
DATA ascii
2.6243973 -1.4597251 -0.70718098 100
2.6329319 -1.4554949 -0.70413703 100
2.6414664 -1.4512646 -0.70109308 100
2.650001 -1.4470344 -0.69804913 100
2.6585357 -1.442804 -0.69500518 100
2.6670702 -1.4385737 -0.69196129 100
2.6756048 -1.4343435 -0.68891734 100
2.6841395 -1.4301132 -0.68587339 100
2.6926739 -1.4258829 -0.68282944 100
2.7012086 -1.4216527 -0.67978549 100
2.709743 -1.4174223 -0.67674154 100
2.7182777 -1.413192 -0.67369759 100
2.7268124 -1.4089618 -0.67065364 100
2.7353468 -1.4047315 -0.66760969 100
2.7438815 -1.4005013 -0.6645658 100
2.7524161 -1.396271 -0.66152185 100
2.7609506 -1.3920406 -0.6584779 100
2.7694852 -1.3878103 -0.65543395 100
2.7780199 -1.3835801 -0.65239 100
2.7865543 -1.3793498 -0.64934605 100
2.795089 -1.3751196 -0.6463021 100
2.8036237 -1.3708893 -0.64325815 100
2.8121581 -1.3666589 -0.6402142 100
2.8206928 -1.3624287 -0.63717026 100
2.8292274 -1.3581984 -0.63412631 100
2.8377619 -1.3539681 -0.63108242 100
2.8462965 -1.3497379 -0.62803847 100
2.8548312 -1.3455076 -0.62499452 100
2.8633657 -1.3412774 -0.62195057 100
2.8719003 -1.337047 -0.61890662 100
2.8804348 -1.3328167 -0.61586267 100
2.8889694 -1.3285865 -0.61281872 100
2.8975041 -1.3243562 -0.60977483 100
2.9060385 -1.3201259 -0.60673088 100
3.0256016 -1.2393917 -0.49915516 100
3.0221918 -1.2382728 -0.49187627 100
3.0187821 -1.2371538 -0.48459736 100
3.0153725 -1.2360349 -0.47731847 100
3.0119627 -1.2349159 -0.47003958 100
3.008553 -1.233797 -0.46276069 100
3.0051434 -1.2326779 -0.45548177 100
3.0017335 -1.231559 -0.44820288 100
2.9983239 -1.23044 -0.44092399 100
2.9949143 -1.2293211 -0.4336451 100
2.9915044 -1.2282022 -0.42636621 100
2.9880948 -1.2270832 -0.41908729 100
2.9846852 -1.2259643 -0.4118084 100
2.9812753 -1.2248453 -0.40452951 100
2.9778657 -1.2237264 -0.39725059 100
2.9744561 -1.2226074 -0.3899717 100
2.9710462 -1.2214885 -0.38269281 100
2.9676366 -1.2203695 -0.37541389 100
2.964227 -1.2192506 -0.36813501 100
2.9608171 -1.2181315 -0.36085609 100
2.9574075 -1.2170126 -0.3535772 100
2.9539979 -1.2158936 -0.34629831 100
2.950588 -1.2147747 -0.33901939 100
2.9471784 -1.2136557 -0.3317405 100
2.9437685 -1.2125368 -0.32446158 100
2.9403589 -1.2114178 -0.31718269 100
2.9369493 -1.2102989 -0.3099038 100
2.9335396 -1.2091799 -0.30262491 100
2.9301298 -1.208061 -0.29534602 100
2.9267201 -1.206942 -0.28806713 100
2.9233105 -1.2058231 -0.28078824 100
2.9199007 -1.2047042 -0.27350935 100
2.916491 -1.2035851 -0.26623046 100
2.9130814 -1.2024662 -0.25895157 100
2.9096715 -1.2013472 -0.25167269 100
2.9062619 -1.2002283 -0.2443938 100
2.9028523 -1.1991093 -0.23711489 100
2.8994424 -1.1979904 -0.229836 100
2.8960328 -1.1968714 -0.22255711 100
2.8926232 -1.1957525 -0.21527822 100
2.8892133 -1.1946335 -0.20799933 100
2.8858037 -1.1935146 -0.20072044 100
2.8823941 -1.1923956 -0.19344155 100
2.9962039 -1.097198 -0.60476506 100
2.992907 -1.0882367 -0.60773575 100
2.9896102 -1.0792754 -0.61070645 100
2.9863131 -1.070314 -0.61367708 100
2.9830163 -1.0613527 -0.61664778 100
2.9797194 -1.0523913 -0.61961848 100
2.9764225 -1.04343 -0.62258917 100
2.9731257 -1.0344687 -0.62555987 100
2.9698286 -1.0255073 -0.62853056 100
2.9665318 -1.016546 -0.6315012 100
2.9632349 -1.0075847 -0.63447189 100
2.959938 -0.99862337 -0.63744259 100
2.9566412 -0.98966205 -0.64041328 100
2.9533441 -0.98070067 -0.64338398 100
2.9500473 -0.97173935 -0.64635468 100
2.9467504 -0.96277803 -0.64932531 100
2.9434536 -0.95381665 -0.65229601 100
2.9401567 -0.94485533 -0.6552667 100
2.9368596 -0.93589401 -0.6582374 100
2.9335628 -0.92693263 -0.66120809 100
2.9302659 -0.91797131 -0.66417879 100
2.9269691 -0.90900999 -0.66714942 100
2.9236722 -0.90004867 -0.67012012 100
2.9203751 -0.89108729 -0.67309082 100
2.9170783 -0.88212597 -0.67606151 100
2.9137814 -0.87316465 -0.67903221 100
2.9104846 -0.86420333 -0.6820029 100
2.9071877 -0.85524195 -0.68497354 100
2.9038906 -0.84628063 -0.68794423 100
2.9005938 -0.83731931 -0.69091493 100
2.8972969 -0.82835799 -0.69388562 100
2.8940001 -0.81939667 -0.69685626 100
2.8907032 -0.81043535 -0.69982696 100
2.8874063 -0.80147403 -0.70279765 100
2.8841093 -0.79251271 -0.70576835 100
