# .PCD v0.7 - Point Cloud Data file format
VERSION 0.7
FIELDS x y z rgb
SIZE 4 4 4 4
TYPE F F F U
COUNT 1 1 1 1
WIDTH 411
HEIGHT 1
VIEWPOINT 0 0 0 1 0 0 0
POINTS 411
DATA ascii
3.0443413 -1.2343223 -0.5203011 4279375885
2.972641 -1.2058558 -0.39388174 4279375885
2.9333036 -1.1910912 -0.27698094 4279375885
3.0363581 -1.2434443 -0.51967537 4279375885
2.9682012 -1.2167429 -0.39388174 4279375885
2.9420314 -1.206615 -0.27820113 4279375885
2.8601139 -1.1741847 -0.16203214 4279375885
3.0176134 -1.2474691 -0.5171724 4279375885
2.962316 -1.2258201 -0.39363801 4279375885
2.9120314 -1.206203 -0.27576074 4279375885
2.848824 -1.1806041 -0.16161345 4279375885
3.0132406 -1.2579949 -0.5171724 4279375885
2.9561875 -1.2353877 -0.39339426 4279375885
2.8896337 -1.2081673 -0.27401763 4279375885
2.8465283 -1.1913123 -0.16171812 4279375885
2.8184354 -1.1801332 -0.053334557 4279375885
2.9799268 -1.2557069 -0.5121665 4279375885
2.9319549 -1.2366973 -0.39071316 4279375885
2.878057 -1.2151469 -0.27332041 4279375885
2.8315227 -1.1960821 -0.16109009 4279375885
2.9700723 -1.263781 -0.51122791 4279375885
2.9203148 -1.243813 -0.3897382 4279375885
2.8758445 -1.2254653 -0.27349472 4279375885
2.8089592 -1.1981226 -0.16004337 4279375885
2.9710877 -1.2764801 -0.5121665 4279375885
2.9086609 -1.2508621 -0.38876322 4279375885
2.8587377 -1.229984 -0.27227452 4279375885
2.7992566 -1.2055503 -0.15972935 4279375885
2.9503036 -1.2797682 -0.50935066 4279375885
2.8915308 -1.2554734 -0.38705707 4279375885
2.8471174 -1.2367803 -0.2715773 4279375885
2.7858737 -1.2113323 -0.15920599 4279375885
2.9349618 -1.2853045 -0.50747347 4279375885
2.8834944 -1.2639652 -0.38656959 4279375885
2.8208873 -1.2371087 -0.26948556 4279375885
2.7779706 -1.2194438 -0.15899664 4279375885
2.9123905 -1.2875544 -0.50434476 4279375885
2.8718035 -1.2708094 -0.38559461 4279375885
2.8110864 -1.2445282 -0.26896262 4279375885
2.7663932 -1.2258967 -0.15857796 4279375885
2.8988588 -1.2936875 -0.50278044 4279375885
2.8619127 -1.2783976 -0.38486344 4279375885
2.7976298 -1.2502686 -0.26809105 4279375885
2.7383959 -1.2249438 -0.15721723 4279375885
2.9074507 -1.3084904 -0.61974764 4279375885
2.8817177 -1.2981191 -0.50059032 4279375885
2.8339076 -1.2777723 -0.38169482 4279375885
2.7932487 -1.2600265 -0.26809105 4279375885
2.7250021 -1.2303855 -0.15669388 4279375885
2.8939283 -1.3145716 -0.61783957 4279375885
2.8755987 -1.3068508 -0.50027746 4279375885
2.8079712 -1.2772995 -0.37876993 4279375885
2.7779536 -1.2648154 -0.2670452 4279375885
2.7136364 -1.2361034 -0.15627518 4279375885
2.8841987 -1.3217072 -0.61669469 4279375885
2.8674285 -1.3152336 -0.49965176 4279375885
2.8016918 -1.2862653 -0.37852621 4279375885
2.7556386 -1.2657045 -0.26530206 4279375885
2.7020464 -1.2422311 -0.15585649 4279375885
2.8777857 -1.3309429 -0.6163131 4279375885
2.8431013 -1.3161066 -0.49621019 4279375885
2.7989857 -1.2968714 -0.37876993 4279375885
2.7421656 -1.2711262 -0.26443052 4279375885
2.6940703 -1.2499744 -0.15564716 4279375885
2.8624482 -1.3359981 -0.61402339 4279375885
2.8009057 -1.3084652 -0.48963994 4279375885
2.7728631 -1.2965442 -0.37584507 4279375885
2.7178602 -1.2714038 -0.2625131 4279375885
2.6661761 -1.2483608 -0.15428641 4279375885
2.8577673 -1.3459817 -0.61402339 4279375885
2.7945347 -1.3173919 -0.48932707 4279375885
2.7557535 -1.3002857 -0.37413892 4279375885
2.7152073 -1.2817338 -0.26268741 4279375885
2.6455498 -1.2499808 -0.15334436 4279375885
2.8406391 -1.3500501 -0.61135209 4279375885
2.7809997 -1.3228956 -0.48776269 4279375885
2.7422364 -1.3056304 -0.37292022 4279375885
2.7143142 -1.2929173 -0.26303601 4279375885
2.818207 -1.3514682 -0.6075359 4279375885
2.7817078 -1.3351595 -0.48870131 4279375885
2.7269263 -1.310037 -0.37145779 4279375885
2.6810524 -1.2885751 -0.26024702 4279375885
2.8064032 -1.357877 -0.60600942 4279375885
2.7468064 -1.3302246 -0.48338255 4279375885
2.7187641 -1.3178161 -0.37097031 4279375885
2.6673489 -1.2940446 -0.25937548 4279375885
2.7943511 -1.3647077 -0.60448295 4279375885
2.7241654 -1.3316083 -0.48025388 4279375885
2.7087977 -1.3246821 -0.37023908 4279375885
2.661026 -1.3024716 -0.25920117 4279375885
2.7790039 -1.3692473 -0.60219324 4279375885
2.7319021 -1.3472251 -0.48244393 4279375885
2.6825635 -1.3240582 -0.36731425 4279375885
2.6493175 -1.3082237 -0.25850391 4279375885
2.7566268 -1.370201 -0.59837705 4279375885
2.7132695 -1.3492404 -0.47994098 4279375885
2.6763809 -1.3320621 -0.3670705 4279375885
2.6286845 -1.3094683 -0.25693512 4279375885
2.7415371 -1.3740566 -0.59608734 4279375885
2.7014806 -1.3551604 -0.47868952 4279375885
2.6610706 -1.3360522 -0.36560807 4279375885
2.611865 -1.3119181 -0.25571495 4279375885
2.7297158 -1.3800747 -0.59456086 4279375885
2.6843958 -1.358339 -0.47649944 4279375885
2.6599326 -1.3471267 -0.36609554 4279375885
2.5983829 -1.3165246 -0.25484338 4279375885
2.7213838 -1.3878109 -0.59379762 4279375885
2.6690812 -1.3623128 -0.47462222 4279375885
2.6499104 -1.3536941 -0.36536431 4279375885
2.5937715 -1.3255867 -0.25484338 4279375885
2.7130311 -1.395506 -0.59303439 4279375885
2.6572845 -1.3680047 -0.47337076 4279375885
2.6239939 -1.3520252 -0.36243945 4279375885
2.6837456 -1.3923103 -0.58769172 4279375885
2.6454804 -1.3736306 -0.47211927 4279375885
2.6069279 -1.3547684 -0.36073327 4279375885
2.7042048 -1.4143251 -0.70454669 4279375885
2.668432 -1.3962088 -0.58540201 4279375885
2.6336699 -1.3791913 -0.47086781 4279375885
2.5986667 -1.362017 -0.36024579 4279375885
2.6958041 -1.4219377 -0.7036469 4279375885
2.6600695 -1.4036824 -0.58463877 4279375885
2.6113722 -1.379151 -0.46773914 4279375885
2.5903866 -1.3692244 -0.35975835 4279375885
2.6667376 -1.4185265 -0.6973483 4279375885
2.6516874 -1.4111147 -0.58387554 4279375885
2.596081 -1.3826864 -0.46586189 4279375885
2.5820878 -1.3763907 -0.35927087 4279375885
2.6652043 -1.4296689 -0.69824809 4279375885
2.6432858 -1.4185054 -0.58311236 4279375885
2.5877581 -1.3898705 -0.46523616 4279375885
2.5510404 -1.3712972 -0.35561478 4279375885
2.6601975 -1.4389634 -0.69824809 4279375885
2.6175981 -1.4165112 -0.57853287 4279375885
2.582891 -1.398895 -0.46523616 4279375885
2.5462382 -1.3801937 -0.35561478 4279375885
2.6551583 -1.4482405 -0.69824809 4279375885
2.600574 -1.4190568 -0.57586157 4279375885
2.5623889 -1.3993813 -0.46242031 4279375885
2.6364264 -1.4499871 -0.69464886 4279375885
2.5887246 -1.4243404 -0.5743351 4279375885
2.5419152 -1.3997414 -0.45960453 4279375885
2.6194196 -1.4525657 -0.69149953 4279375885
2.5768697 -1.4295583 -0.57280862 4279375885
2.5335598 -1.4066882 -0.4589788 4279375885
2.6075294 -1.4578964 -0.68969995 4279375885
2.5684371 -1.4366277 -0.57204539 4279375885
2.5148447 -1.407804 -0.45647582 4279375885
2.5922389 -1.4612477 -0.68700051 4279375885
2.5497258 -1.4378697 -0.56899244 4279375885
2.5820396 -1.4673986 -0.68565083 4279375885
2.5276246 -1.4370579 -0.56517625 4279375885
2.5718291 -1.4734964 -0.68430108 4279375885
2.5328126 -1.4517298 -0.56746602 4279375885
2.5584903 -1.4771451 -0.6820516 4279375885
2.8829417 -0.79788506 -0.69059974 4289583127
2.8876441 -0.81004894 -0.69239932 4289583127
2.8997946 -0.82438689 -0.69599855 4289583127
2.885664 -0.83126748 -0.69329917 4289583127
2.8846152 -0.84188128 -0.69374907 4289583127
2.9004965 -0.85696399 -0.69824809 4289583127
2.8956206 -0.86652476 -0.69779819 4289583127
2.7402315 -0.82941252 -0.76713973 4289583127
2.8925781 -0.87662703 -0.69779819 4289583127
2.8764594 -0.88271666 -0.69464886 4289583127
2.7454448 -0.85195792 -0.77024549 4289583127
2.8733606 -0.89275205 -0.69464886 4289583127
2.7461402 -0.86269408 -0.77128083 4289583127
2.873945 -0.90394592 -0.69554865 4289583127
2.7154965 -0.86349326 -0.76351619 4289583127
2.874486 -0.91515481 -0.6964485 4289583127
2.712466 -0.87296689 -0.76351619 4289583127
2.8786931 -0.92757356 -0.69824809 4289583127
2.7130761 -0.88362646 -0.76455152 4289583127
2.8606157 -0.93278348 -0.69464886 4289583127
2.7118099 -0.89369607 -0.76506913 4289583127
2.8462389 -0.93909961 -0.69194949 4289583127
2.7141716 -0.90498984 -0.76662207 4289583127
2.8503373 -0.9514972 -0.69374907 4289583127
2.6945219 -0.90890139 -0.76196331 4289583127
2.85623 -0.96455854 -0.69599855 4289583127
2.6968174 -0.92017293 -0.76351619 4289583127
2.8528457 -0.97452271 -0.69599855 4289583127
2.6954155 -0.93021131 -0.76403385 4289583127
2.8310075 -0.97811133 -0.69149953 4289583127
2.69414 -0.93978083 -0.76455152 4289583127
2.8259084 -0.98685139 -0.69104964 4289583127
2.9709585 -1.0380869 -0.61173368 4289583127
2.6891868 -0.94806743 -0.76403385 4289583127
2.831809 -0.99945998 -0.69329917 4289583127
2.9823093 -1.0531631 -0.61478662 4289583127
2.6802349 -0.95597035 -0.76248091 4289583127
2.8264675 -1.0086838 -0.69284928 4289583127
2.9765806 -1.0634264 -0.61440504 4289583127
2.6696126 -0.96269894 -0.76041043 4289583127
2.8227513 -1.0190365 -0.69284928 4289583127
2.9802363 -1.0764778 -0.61593145 4289583127
2.6753109 -0.97532016 -0.76299858 4289583127
2.8118546 -1.026211 -0.69104964 4289583127
2.9856815 -1.0902413 -0.61783957 4289583127
2.6755157 -0.9859888 -0.76403385 4289583127
2.8082552 -1.03602 -0.69104964 4289583127
2.9892244 -1.1033759 -0.61936599 4289583127
2.6738679 -0.99599659 -0.76455152 4289583127
2.8046217 -1.0458164 -0.69104964 4289583127
2.9669607 -1.1069407 -0.61554986 4289583127
2.661335 -1.0019207 -0.76196331 4289583127
2.8100719 -1.0590361 -0.69329917 4289583127
2.970427 -1.1200616 -0.61707634 4289583127
2.6542103 -1.0098305 -0.76092798 4289583127
2.8100002 -1.0702261 -0.69419897 4289583127
2.9628301 -1.1290252 -0.6163131 4289583127
2.6596847 -1.0225554 -0.76351619 4289583127
2.791698 -1.0744284 -0.69059974 4289583127
2.9698634 -1.1435934 -0.61860281 4289583127
2.6580803 -1.032069 -0.76403385 4289583127
2.7917521 -1.0850922 -0.69149953 4289583127
2.9660547 -1.1534356 -0.61860281 4289583127
2.6600389 -1.0429934 -0.76558679 4289583127
2.7899528 -1.0950559 -0.69194949 4289583127
2.9512494 -1.1589594 -0.6163131 4289583127
2.6420133 -1.0465804 -0.76144564 4289583127
2.7879245 -1.1055063 -0.69239932 4289583127
2.9435358 -1.167806 -0.61554986 4289583127
2.6329632 -1.0536432 -0.75989276 4289583127
2.7876668 -1.1166807 -0.69329917 4289583127
2.9467311 -1.1809953 -0.61707634 4289583127
2.6434114 -1.0690811 -0.76403385 4289583127
2.7747195 -1.1227497 -0.69104964 4289583127
2.9423826 -1.1917877 -0.61707634 4289583127
2.6378748 -1.077571 -0.76351619 4289583127
2.7705858 -1.132912 -0.69104964 4289583127
2.9418387 -1.2035381 -0.61783957 4289583127
2.6412408 -1.0897197 -0.76558679 4289583127
2.7668135 -1.1420934 -0.69104964 4289583127
2.930362 -1.2108006 -0.6163131 4289583127
2.6269124 -1.094016 -0.76248091 4289583127
2.7664077 -1.1532441 -0.69194949 4289583127
2.9227064 -1.2189999 -0.61554986 4289583127
2.6195159 -1.1016811 -0.76144564 4289583127
2.7679567 -1.1646791 -0.69329917 4289583127
2.9184337 -1.2291948 -0.61554986 4289583127
2.6194048 -1.1118714 -0.76248091 4289583127
2.7549067 -1.1705234 -0.69104964 4289583127
2.9251823 -1.2434741 -0.61783957 4289583127
2.6226103 -1.1240523 -0.76455152 4289583127
2.7508037 -1.1801327 -0.69104964 4289583127
2.9244318 -1.255226 -0.61860281 4289583127
2.6204436 -1.1339672 -0.76506913 4289583127
2.7502441 -1.1912768 -0.69194949 4289583127
2.9128273 -1.2623042 -0.61707634 4289583127
2.6040773 -1.1376935 -0.76144564 4289583127
2.7514255 -1.2032121 -0.69329917 4289583127
2.9048061 -1.2708901 -0.6163131 4289583127
2.6036253 -1.1483356 -0.76248091 4289583127
2.7489915 -1.2135961 -0.69374907 4289583127
2.9075356 -1.2841949 -0.61783957 4289583127
2.6066604 -1.16056 -0.76455152 4289583127
2.7340586 -1.2184248 -0.69104964 4289583127
2.9102075 -1.297534 -0.61936599 4289583127
2.6061175 -1.1712357 -0.76558679 4289583127
2.7333434 -1.2295601 -0.69194949 4289583127
2.6055317 -1.1819217 -0.76662207 4289583127
2.7292509 -1.2386174 -0.69194949 4289583127
2.591058 -1.1857321 -0.76351619 4289583127
2.7284541 -1.2497598 -0.69284928 4289583127
2.5904114 -1.1963894 -0.76455152 4289583127
2.7346883 -1.2641826 -0.69554865 4289583127
2.5844684 -1.2046082 -0.76403385 4289583127
2.7249608 -1.2712491 -0.69419897 4289583127
2.5854921 -1.216089 -0.76558679 4289583127
2.7187436 -1.2799232 -0.69374907 4289583127
2.5882123 -1.22842 -0.76765728 4289583127
2.7142591 -1.2894055 -0.69374907 4289583127
2.5786815 -1.2349437 -0.7661044 4289583127
2.7185283 -1.3030839 -0.69599855 4289583127
2.5639186 -1.2388946 -0.76299858 4289583127
2.7209804 -1.3159592 -0.69779819 4289583127
2.5680423 -1.2525179 -0.76558679 4289583127
2.7093647 -1.3220309 -0.69599855 4289583127
2.5671213 -1.2631801 -0.76662207 4289583127
2.7045012 -1.3319523 -0.69599855 4289583127
2.5713482 -1.2764282 -0.76921022 4289583127
2.7053053 -1.3435138 -0.6973483 4289583127
2.5550086 -1.2788953 -0.76558679 4289583127
2.7005992 -1.3529488 -0.6973483 4289583127
2.5505288 -1.287806 -0.76558679 4289583127
2.7010779 -1.3650044 -0.69869798 4289583127
2.5494606 -1.2984546 -0.76662207 4289583127
2.6945603 -1.3735396 -0.69824809 4289583127
2.5500681 -1.3099942 -0.76817495 4289583127
2.696682 -1.3865012 -0.70004767 4289583127
2.5574868 -1.3251089 -0.77179843 4289583127
2.7004755 -1.4003915 -0.70229721 4289583127
2.537436 -1.3259757 -0.76713973 4289583127
2.5345013 -1.3357255 -0.76765728 4289583127
2.5366466 -1.348191 -0.76972789 4289583127
2.545547 -1.3643384 -0.77386898 4289583127
2.8628867 -0.76015031 -0.68385124 4282808944
2.8415744 -0.76565164 -0.57204539 4282808944
2.8650298 -0.78217125 -0.68565083 4282808944
2.8267 -0.78285074 -0.57013732 4282808944
2.8220599 -0.79218233 -0.56975567 4282808944
2.834384 -0.80632597 -0.57280862 4282808944
2.7756102 -0.79065323 -0.45710155 4282808944
2.8466437 -0.82056516 -0.57586157 4282808944
2.7994037 -0.80800641 -0.46148172 4282808944
2.8550694 -0.83379894 -0.57815129 4282808944
2.811734 -0.82220846 -0.46398467 4282808944
2.8521414 -0.84375995 -0.57815129 4282808944
2.8165686 -0.83377093 -0.46523616 4282808944
2.8643737 -0.85771883 -0.58120424 4282808944
2.8287783 -0.84813613 -0.46773914 4282808944
2.7929606 -0.83845967 -0.35805216 4282808944
2.8726349 -0.87113047 -0.58349395 4282808944
2.8258007 -0.85800511 -0.46773914 4282808944
2.769125 -0.84185237 -0.35537103 4282808944
2.8770838 -0.88345772 -0.58502042 4282808944
2.8265648 -0.86902493 -0.46836486 4282808944
2.7965252 -0.86085773 -0.35927087 4282808944
2.8889802 -0.89815795 -0.58807337 4282808944
2.8367169 -0.88299578 -0.47055492 4282808944
2.7878175 -0.86884224 -0.35853964 4282808944
2.8895729 -0.90941572 -0.58883661 4282808944
2.8468056 -0.89704818 -0.472745 4282808944
2.7866611 -0.87916565 -0.35878339 4282808944
2.8938632 -0.92188025 -0.59036303 4282808944
2.8530667 -0.90998113 -0.47430936 4282808944
2.8062673 -0.89613378 -0.36170825 4282808944
2.909313 -0.93800044 -0.59417921 4282808944
2.8592722 -0.92296863 -0.47587368 4282808944
2.8125668 -0.90897638 -0.36292693 4282808944
2.775353 -0.8974846 -0.25519201 4282808944
2.913487 -0.95058614 -0.59570575 4282808944
2.8691773 -0.93723756 -0.47806379 4282808944
2.8188105 -0.92187375 -0.36414564 4282808944
2.9325223 -0.96813595 -0.60028511 4282808944
2.8790174 -0.95158643 -0.48025388 4282808944
2.8136904 -0.93108392 -0.36390188 4282808944
2.7917166 -0.92435318 -0.25728375 4282808944
2.925401 -0.97712255 -0.59952188 4282808944
2.8925388 -0.96726865 -0.48306966 4282808944
2.8236003 -0.94531143 -0.36560807 4282808944
2.779027 -0.93092817 -0.25641218 4282808944
2.9331319 -0.99109882 -0.60181159 4282808944
2.9022434 -0.9817906 -0.48525977 4282808944
2.8315642 -0.95898247 -0.3670705 4282808944
2.7738733 -0.93998361 -0.25623786 4282808944
2.953805 -1.0095857 -0.6067726 4282808944
2.8969295 -0.99127579 -0.48494691 4282808944
2.8432231 -0.97400737 -0.3690204 4282808944
2.781884 -0.95353675 -0.25728375 4282808944
2.9669623 -1.0256634 -0.6102072 4282808944
2.9027853 -1.0046121 -0.48651123 4282808944
2.854984 -0.9886269 -0.37097031 4282808944
2.7898335 -0.96715719 -0.25832963 4282808944
2.9162192 -1.0201027 -0.48932707 4282808944
2.8441956 -0.99546582 -0.36999539 4282808944
2.8016534 -0.98167408 -0.25972411 4282808944
2.9277198 -1.035035 -0.49182999 4282808944
2.859417 -1.0120111 -0.37243277 4282808944
2.8188674 -0.99876702 -0.26164153 4282808944
2.9350665 -1.0497502 -0.49370724 4282808944
2.8614738 -1.0239924 -0.37316394 4282808944
2.8097367 -1.0065846 -0.26111859 4282808944
2.7824113 -0.99789149 -0.15491444 4282808944
2.9388146 -1.062676 -0.4949587 4282808944
2.8745008 -1.0405548 -0.3753576 4282808944
2.8155725 -1.0197788 -0.26199016 4282808944
2.7826667 -1.0089595 -0.1551238 4282808944
2.9462192 -1.0769972 -0.49683592 4282808944
2.8969493 -1.0601329 -0.37876993 4282808944
2.8250923 -1.0343959 -0.26321036 4282808944
2.766001 -1.0138551 -0.15439108 4282808944
2.9517066 -1.0906982 -0.49840027 4282808944
2.887646 -1.0681726 -0.37803873 4282808944
2.8457551 -1.0532415 -0.26547641 4282808944
2.7718091 -1.0269736 -0.15491444 4282808944
2.9756393 -1.1113622 -0.5030933 4282808944
2.9006341 -1.0845027 -0.38023239 4282808944
2.855124 -1.0680552 -0.26669657 4282808944
2.7887821 -1.0443475 -0.15606584 4282808944
2.9772861 -1.1238352 -0.5040319 4282808944
2.9042587 -1.0974278 -0.38120735 4282808944
2.847651 -1.0766057 -0.26634794 4282808944
2.7963276 -1.0583177 -0.15669388 4282808944
2.9696536 -1.1328129 -0.50340617 4282808944
2.9171004 -1.1139324 -0.38340098 4282808944
2.8624873 -1.09365 -0.26809105 4282808944
2.8094053 -1.0744934 -0.15763591 4282808944
2.9859562 -1.1509873 -0.50684774 4282808944
2.9319117 -1.1307428 -0.38583836 4282808944
2.8642287 -1.1057881 -0.26861399 4282808944
2.8019116 -1.0828536 -0.15742657 4282808944
2.9931681 -1.1651824 -0.50872493 4282808944
2.9244463 -1.1390182 -0.38535091 4282808944
2.8791089 -1.1225176 -0.2703571 4282808944
2.81319 -1.0979484 -0.15826395 4282808944
3.0095105 -1.1830512 -0.5121665 4282808944
2.9444666 -1.158669 -0.3885195 4282808944
2.8883476 -1.137168 -0.2715773 4282808944
2.8299735 -1.1153268 -0.15941535 4282808944
3.0237215 -1.2008404 -0.51529521 4282808944
2.9551616 -1.1748068 -0.39046943 4282808944
2.8917656 -1.1501887 -0.27227452 4282808944
2.8409076 -1.1311088 -0.16025271 4282808944
3.0286779 -1.2150652 -0.51685953 4282808944
2.9694638 -1.1925128 -0.39290681 4282808944
2.9060166 -1.1682112 -0.27401763 4282808944
2.8462069 -1.1447449 -0.16077606 4282808944
2.8604949 -1.1626898 -0.1618228 4282808944
