# .PCD v0.7 - Point Cloud Data file format
VERSION 0.7
FIELDS x y z rgb
SIZE 4 4 4 4
TYPE F F F U
COUNT 1 1 1 1
WIDTH 413
HEIGHT 1
VIEWPOINT 0 0 0 1 0 0 0
POINTS 413
DATA ascii
2.8841219 -0.80092204 -0.69104964 4279036563
2.8942974 -0.81518567 -0.69419897 4279036563
2.9009483 -0.82745177 -0.6964485 4279036563
2.8886817 -0.83486754 -0.69419897 4279036563
2.8915083 -0.84608406 -0.69554865 4279036563
2.8904054 -0.85672587 -0.69599855 4279036563
2.902329 -0.87129259 -0.69959778 4279036563
2.7524462 -0.8357324 -0.77076316 4279036563
2.8936765 -0.87971777 -0.69824809 4279036563
2.754904 -0.8475191 -0.7723161 4279036563
2.8812757 -0.88694656 -0.69599855 4279036563
2.7353287 -0.85196 -0.76765728 4279036563
2.8724241 -0.89576066 -0.69464886 4279036563
2.7415502 -0.86440748 -0.77024549 4279036563
2.8692799 -0.90578181 -0.69464886 4279036563
2.7182722 -0.86751121 -0.76455152 4279036563
2.8735259 -0.91816437 -0.6964485 4279036563
2.709712 -0.87521321 -0.76299858 4279036563
2.8667569 -0.92648977 -0.69554865 4279036563
2.7123041 -0.88599378 -0.76455152 4279036563
2.8542442 -0.9334622 -0.69329917 4279036563
2.7146974 -0.89727461 -0.7661044 4279036563
2.8491185 -0.94280744 -0.69284928 4279036563
2.7115488 -0.90674537 -0.7661044 4279036563
2.8495057 -0.95398432 -0.69374907 4279036563
2.6955574 -0.91187143 -0.76248091 4279036563
2.8498497 -0.96517527 -0.69464886 4279036563
2.6941857 -0.92190063 -0.76299858 4279036563
2.8501508 -0.97638053 -0.69554865 4279036563
2.7000794 -0.93445855 -0.76558679 4279036563
2.8356769 -0.98249543 -0.69284928 4279036563
2.9753411 -1.0314674 -0.61211532 4279036563
2.6931543 -0.94260156 -0.76455152 4279036563
2.8322301 -0.99238789 -0.69284928 4279036563
2.9735749 -1.0424964 -0.61249691 4279036563
2.6880264 -0.95135218 -0.76403385 4279036563
2.8232381 -1.0003157 -0.69149953 4279036563
2.9773197 -1.055494 -0.61402339 4279036563
2.6810515 -0.95942748 -0.76299858 4279036563
2.832571 -1.014765 -0.69464886 4279036563
2.9717691 -1.0652177 -0.61364174 4279036563
2.6667864 -0.96483672 -0.75989276 4279036563
2.821861 -1.0214995 -0.69284928 4279036563
2.9827991 -1.080936 -0.61669469 4279036563
2.67083 -0.97632802 -0.76196331 4279036563
2.812788 -1.0293343 -0.69149953 4279036563
2.9884157 -1.0941962 -0.61860281 4279036563
2.6710298 -0.98698413 -0.76299858 4279036563
2.8093591 -1.038656 -0.69149953 4279036563
2.9919431 -1.107347 -0.62012929 4279036563
2.6710138 -0.99811977 -0.76403385 4279036563
2.7980494 -1.0467045 -0.68969995 4279036563
2.973155 -1.1128001 -0.61707634 4279036563
2.6568449 -1.0028783 -0.76092798 4279036563
2.8091469 -1.061488 -0.69329917 4279036563
2.9731212 -1.1240418 -0.61783957 4279036563
2.6498942 -1.0103066 -0.75989276 4279036563
2.8074317 -1.0714924 -0.69374907 4279036563
2.9730451 -1.1352956 -0.61860281 4279036563
2.653384 -1.0227916 -0.76196331 4279036563
2.790947 -1.0763773 -0.69059974 4279036563
2.9615386 -1.1433563 -0.61707634 4279036563
2.6533976 -1.0334496 -0.76299858 4279036563
2.7851675 -1.0858914 -0.69014984 4279036563
2.9685032 -1.1579679 -0.61936599 4279036563
2.6587627 -1.0462424 -0.76558679 4279036563
2.7831733 -1.0963211 -0.69059974 4279036563
2.9498312 -1.1625642 -0.6163131 4279036563
2.6389375 -1.0490938 -0.76092798 4279036563
2.7847614 -1.1081911 -0.69194949 4279036563
2.945755 -1.1728538 -0.6163131 4279036563
2.6372371 -1.0585588 -0.76144564 4279036563
2.7864959 -1.1195992 -0.69329917 4279036563
2.9418495 -1.1826159 -0.6163131 4279036563
2.6372929 -1.0687494 -0.76248091 4279036563
2.7737386 -1.1251708 -0.69104964 4279036563
2.9449797 -1.1958323 -0.61783957 4279036563
2.633358 -1.0784084 -0.76248091 4279036563
2.7695959 -1.1353294 -0.69104964 4279036563
2.9405768 -1.2066181 -0.61783957 4279036563
2.6383131 -1.0917462 -0.76506913 4279036563
2.7636158 -1.1447272 -0.69059974 4279036563
2.9327197 -1.2153721 -0.61707634 4279036563
2.622009 -1.0957348 -0.76144564 4279036563
2.7685921 -1.1581271 -0.69284928 4279036563
2.9248374 -1.2240858 -0.6163131 4279036563
2.6163881 -1.1041296 -0.76092798 4279036563
2.7681229 -1.1693009 -0.69374907 4279036563
2.9241633 -1.2358165 -0.61707634 4279036563
2.6214042 -1.1170423 -0.76351619 4279036563
2.7550621 -1.1751335 -0.69149953 4279036563
2.9270544 -1.2490983 -0.61860281 4279036563
2.6174889 -1.1261857 -0.76351619 4279036563
2.7509432 -1.1847433 -0.69149953 4279036563
2.9226763 -1.2593081 -0.61860281 4279036563
2.6188576 -1.1376249 -0.76506913 4279036563
2.7541485 -1.1969663 -0.69329917 4279036563
2.9110618 -1.2663699 -0.61707634 4279036563
2.6062241 -1.1424252 -0.76248091 4279036563
2.755307 -1.2089216 -0.69464886 4279036563
2.9068465 -1.2760162 -0.61707634 4279036563
2.5969207 -1.1491703 -0.76092798 4279036563
2.7581973 -1.221689 -0.6964485 4279036563
2.9131439 -1.2909276 -0.61936599 4279036563
2.5981851 -1.1605921 -0.76248091 4279036563
2.7343469 -1.2225598 -0.69149953 4279036563
2.9086199 -1.3010886 -0.61936599 4279036563
2.6064458 -1.1752126 -0.7661044 4279036563
2.7338305 -1.2332231 -0.69239932 4279036563
2.9040606 -1.3112335 -0.61936599 4279036563
2.6042926 -1.1846495 -0.76662207 4279036563
2.7366035 -1.2459885 -0.69419897 4279036563
2.8836169 -1.3135321 -0.61593145 4279036563
2.5931191 -1.190509 -0.76455152 4279036563
2.7322373 -1.2555336 -0.69419897 4279036563
2.8754468 -1.3219497 -0.61516827 4279036563
2.5819361 -1.1963046 -0.76248091 4279036563
2.7366774 -1.2691624 -0.6964485 4279036563
2.8725955 -1.332805 -0.61554986 4279036563
2.5829947 -1.2077649 -0.76403385 4279036563
2.7198756 -1.2729253 -0.69329917 4279036563
2.8643696 -1.3411592 -0.61478662 4279036563
2.5909929 -1.2225444 -0.76765728 4279036563
2.7189398 -1.284076 -0.69419897 4279036563
2.84902 -1.3461173 -0.61249691 4279036563
2.5849652 -1.2307507 -0.76713973 4279036563
2.7179594 -1.2952358 -0.69509876 4279036563
2.568464 -1.2339104 -0.76351619 4279036563
2.7257154 -1.3106266 -0.69824809 4279036563
2.5676184 -1.244554 -0.76455152 4279036563
2.7228773 -1.3209838 -0.69869798 4279036563
2.5736709 -1.2586011 -0.76765728 4279036563
2.7164991 -1.3296236 -0.69824809 4279036563
2.5761917 -1.2709962 -0.76972789 4279036563
2.7013576 -1.333921 -0.69554865 4279036563
2.5700099 -1.2791202 -0.76921022 4279036563
2.7071505 -1.3485558 -0.69824809 4279036563
2.5551705 -1.2828826 -0.7661044 4279036563
2.7076504 -1.3606223 -0.69959778 4279036563
2.5489535 -1.2909212 -0.76558679 4279036563
2.7098372 -1.3735896 -0.70139736 4279036563
2.5530338 -1.3042051 -0.76817495 4279036563
2.699821 -1.3803791 -0.70004767 4279036563
2.5519001 -1.3148786 -0.76921022 4279036563
2.6932538 -1.3889016 -0.69959778 4279036563
2.5524375 -1.3264508 -0.77076316 4279036563
2.5309124 -1.3259426 -0.76558679 4279036563
2.5313928 -1.3374764 -0.76713973 4279036563
2.5352335 -1.3508466 -0.76972789 4279036563
2.6669703 -1.4222354 -0.69779819 4279036563
2.6568403 -1.4287672 -0.6964485 4279036563
2.6552629 -1.4398905 -0.6973483 4279036563
2.6519306 -1.4500853 -0.69779819 4279036563
2.6417329 -1.4565107 -0.6964485 4279036563
2.617897 -1.4553078 -0.69149953 4279036563
3.0453086 -1.2371907 -0.52061397 4288578264
2.9789429 -1.2114406 -0.39485672 4288578264
2.9341083 -1.1944015 -0.27715525 4288578264
3.02248 -1.2408421 -0.51748526 4288578264
2.9671383 -1.2193327 -0.39388174 4288578264
2.9204979 -1.2013576 -0.27628368 4288578264
2.8533423 -1.1748978 -0.16171812 4288578264
3.0215611 -1.2534255 -0.51811105 4288578264
2.9644828 -1.2309608 -0.39412549 4288578264
2.9034073 -1.2061943 -0.27506351 4288578264
2.840003 -1.1810162 -0.16119476 4288578264
3.0044136 -1.2586222 -0.51592094 4288578264
2.9491837 -1.2366953 -0.39266306 4288578264
2.8899927 -1.2124677 -0.27419198 4288578264
2.8377049 -1.1916958 -0.16129944 4288578264
2.9836283 -1.2621754 -0.51310509 4288578264
2.9375372 -1.2438862 -0.39168811 4288578264
2.8765702 -1.2186621 -0.27332041 4288578264
2.8261726 -1.1984749 -0.16088074 4288578264
2.9664886 -1.2671508 -0.51091504 4288578264
2.9277015 -1.2517914 -0.39095688 4288578264
2.8704667 -1.2279123 -0.27314609 4288578264
2.8036118 -1.2004713 -0.15983403 4288578264
2.9584191 -1.2759333 -0.51028925 4288578264
2.9087338 -1.2557091 -0.38900697 4288578264
2.8497016 -1.2308146 -0.2715773 4288578264
2.7920713 -1.2070801 -0.15941535 4288578264
2.9378705 -1.2786419 -0.50747347 4288578264
2.8863549 -1.2574195 -0.38656959 4288578264
2.8380826 -1.237569 -0.27088004 4288578264
2.7807302 -1.2131377 -0.15899664 4288578264
2.9279637 -1.2865053 -0.50653487 4288578264
2.8746796 -1.2642903 -0.38559461 4288578264
2.8266683 -1.2437638 -0.27018279 4288578264
2.7728231 -1.2212268 -0.15878731 4288578264
2.9072037 -1.2895098 -0.50371903 4288578264
2.8684347 -1.2735118 -0.38535091 4288578264
2.8059223 -1.2463441 -0.26861399 4288578264
2.7630682 -1.2284641 -0.15847328 4288578264
2.8864586 -1.2923846 -0.50090319 4288578264
2.8512914 -1.2778338 -0.38364473 4288578264
2.7997365 -1.2553159 -0.26843968 4288578264
2.7387195 -1.2291062 -0.1573219 4288578264
2.8731561 -1.2978833 -0.49933887 4288578264
2.8199062 -1.2750144 -0.37998864 4288578264
2.7808161 -1.2585093 -0.2670452 4288578264
2.723712 -1.2332385 -0.15669388 4288578264
2.8614185 -1.3046267 -0.49808741 4288578264
2.8118267 -1.2832017 -0.37950116 4288578264
2.7730029 -1.2660688 -0.26669657 4288578264
2.7157576 -1.2410783 -0.15648453 4288578264
2.8424909 -1.3080008 -0.49558446 4288578264
2.8001182 -1.2896872 -0.37852621 4288578264
2.7486618 -1.2665687 -0.26477915 4288578264
2.7005267 -1.2455314 -0.15585649 4288578264
2.8199918 -1.309595 -0.49245578 4288578264
2.7865987 -1.2952698 -0.37730753 4288578264
2.7315774 -1.2702746 -0.26355895 4288578264
2.6852982 -1.2498935 -0.15522847 4288578264
2.8010938 -1.3127244 -0.4899528 4288578264
2.7712772 -1.2999309 -0.37584507 4288578264
2.7235196 -1.2781092 -0.26321036 4288578264
2.6682644 -1.2533153 -0.15449576 4288578264
2.7875659 -1.3182716 -0.48838848 4288578264
2.7523687 -1.3028023 -0.37389517 4288578264
2.7082374 -1.2824918 -0.26216447 4288578264
2.6458256 -1.2540674 -0.15344904 4288578264
2.830127 -1.3492949 -0.60944396 4288578264
2.7758157 -1.3245909 -0.48713696 4288578264
2.7298915 -1.3038464 -0.37145779 4288578264
2.7055418 -1.2927965 -0.26233879 4288578264
2.807708 -1.350655 -0.60562783 4288578264
2.7729552 -1.3351293 -0.48744985 4288578264
2.7253237 -1.3133676 -0.37145779 4288578264
2.6794763 -1.2918495 -0.26024702 4288578264
2.8065083 -1.3621619 -0.60639101 4288578264
2.7451792 -1.3335795 -0.48338255 4288578264
2.7153668 -1.3202688 -0.37072656 4288578264
2.6659925 -1.2968371 -0.25937548 4288578264
2.7946835 -1.3684967 -0.60486454 4288578264
2.7351859 -1.3405457 -0.48244393 4288578264
2.7000484 -1.3244935 -0.36926416 4288578264
2.6471403 -1.299113 -0.25798097 4288578264
2.7687674 -1.3678088 -0.60028511 4288578264
2.7180948 -1.3439564 -0.48025388 4288578264
2.6811755 -1.3268667 -0.36731425 4288578264
2.6425893 -1.3083453 -0.25798097 4288578264
2.7499189 -1.3704597 -0.59723216 4288578264
2.7098515 -1.3516728 -0.47962815 4288578264
2.6640954 -1.3300109 -0.36560807 4288578264
2.6397889 -1.318452 -0.25815532 4288578264
2.7345939 -1.3747594 -0.59494245 4288578264
2.7015874 -1.3593477 -0.47900239 4288578264
2.6612091 -1.3401951 -0.36585179 4288578264
2.6120393 -1.3160045 -0.25588927 4288578264
2.7227747 -1.3807449 -0.59341598 4288578264
2.6756883 -1.3580413 -0.47524795 4288578264
2.6547451 -1.3485774 -0.36560807 4288578264
2.5967724 -1.3196981 -0.25484338 4288578264
2.7144427 -1.3884528 -0.5926528 4288578264
2.6621399 -1.3628721 -0.47368363 4288578264
2.6411881 -1.3533098 -0.36438939 4288578264
2.5868311 -1.3260281 -0.25432047 4288578264
2.6991107 -1.3925184 -0.59036303 4288578264
2.6538558 -1.3703438 -0.4730579 4288578264
2.6135223 -1.3506728 -0.36122078 4288578264
2.7059236 -1.4068143 -0.70409679 4288578264
2.6733346 -1.391057 -0.58578366 4288578264
2.6528015 -1.3809611 -0.47368363 4288578264
2.6055079 -1.3574976 -0.36073327 4288578264
2.7044482 -1.4180611 -0.70499659 4288578264
2.6617525 -1.3962665 -0.58425713 4288578264
2.6322241 -1.3819485 -0.47086781 4288578264
2.5937245 -1.3628908 -0.35975835 4288578264
2.7012043 -1.4284037 -0.70544648 4288578264
2.6533918 -1.403713 -0.58349395 4288578264
2.6099265 -1.3818849 -0.46773914 4288578264
2.5889513 -1.3719363 -0.35975835 4288578264
2.6450114 -1.4111184 -0.58273071 4288578264
2.5928891 -1.3844738 -0.46554902 4288578264
2.5806451 -1.3790939 -0.35927087 4288578264
2.6331539 -1.4166219 -0.58120424 4288578264
2.579344 -1.3888336 -0.46398467 4288578264
2.5565927 -1.3777348 -0.35658973 4288578264
2.6109366 -1.4164431 -0.57738805 4288578264
2.5692723 -1.3950012 -0.46304604 4288578264
2.5517683 -1.3866504 -0.35658973 4288578264
2.5990865 -1.4217795 -0.57586157 4288578264
2.5609221 -1.4020637 -0.46242031 4288578264
2.5837934 -1.425154 -0.57357186 4288578264
2.540448 -1.4024025 -0.45960453 4288578264
2.5788028 -1.4341643 -0.57357186 4288578264
2.5251811 -1.4054976 -0.45772728 4288578264
2.5992017 -1.4568148 -0.6879003 4288578264
2.5635066 -1.4373964 -0.57128215 4288578264
2.5219824 -1.4152704 -0.45804018 4288578264
2.5907073 -1.4639615 -0.68700051 4288578264
2.5413828 -1.4366742 -0.56746602 4288578264
2.5771151 -1.4681727 -0.68475103 4288578264
2.5329406 -1.4435923 -0.56670272 4288578264
2.5719745 -1.4771594 -0.68475103 4288578264
2.5415046 -1.4602495 -0.56975567 4288578264
2.5603156 -1.4817759 -0.68295145 4288578264
2.8697543 -0.76465535 -0.68565083 4280081077
2.8257437 -0.76403165 -0.56899244 4280081077
2.8699846 -0.78621584 -0.68700051 4280081077
2.8211663 -0.77337164 -0.56861085 4280081077
2.8373654 -0.7884711 -0.57242703 4280081077
2.8287876 -0.79726768 -0.57128215 4280081077
2.7737315 -0.78279579 -0.45647582 4280081077
2.8373137 -0.81037205 -0.57357186 4280081077
2.7730196 -0.79253232 -0.45678869 4280081077
2.8496985 -0.82413983 -0.57662481 4280081077
2.8024924 -0.81154794 -0.46210748 4280081077
2.8581088 -0.83739424 -0.57891452 4280081077
2.8149505 -0.82528275 -0.4646104 4280081077
2.8590803 -0.84798396 -0.57967776 4280081077
2.8196273 -0.83735329 -0.46586189 4280081077
2.8636241 -0.86021805 -0.58120424 4280081077
2.8299286 -0.85117322 -0.46805197 4280081077
2.7751207 -0.83574486 -0.3558585 4280081077
2.8718736 -0.87363708 -0.58349395 4280081077
2.82883 -0.86162204 -0.46836486 4280081077
2.7683892 -0.8442685 -0.35537103 4280081077
2.8836617 -0.8887831 -0.5865469 4280081077
2.8332031 -0.87431419 -0.46961632 4280081077
2.7995663 -0.86446917 -0.35975835 4280081077
2.8955348 -0.90352207 -0.58959985 4280081077
2.8395615 -0.88714409 -0.47118065 4280081077
2.7925899 -0.87353903 -0.35927087 4280081077
2.8923633 -0.91362381 -0.58959985 4280081077
2.8458648 -0.90002871 -0.472745 4280081077
2.7838464 -0.88148391 -0.35853964 4280081077
2.896636 -0.92610592 -0.59112626 4280081077
2.8558753 -0.91417289 -0.47493511 4280081077
2.8015466 -0.89786041 -0.36122078 4280081077
2.9083292 -0.94104666 -0.59417921 4280081077
2.8471899 -0.92181289 -0.47399649 4280081077
2.8155489 -0.91265458 -0.36341441 4280081077
2.7744117 -0.90039045 -0.25519201 4280081077
2.9238513 -0.9567917 -0.5979954 4280081077
2.8664811 -0.93912584 -0.47775093 4280081077
2.8236635 -0.9261893 -0.36487687 4280081077
2.7638383 -0.9071005 -0.25449476 4280081077
2.9354036 -0.97192883 -0.60104835 4280081077
2.8725607 -0.95223391 -0.47931525 4280081077
2.8185291 -0.93541485 -0.36463311 4280081077
2.7890182 -0.92616111 -0.25710943 4280081077
2.9319932 -0.98216933 -0.60104835 4280081077
2.8916936 -0.96979237 -0.48306966 4280081077
2.8284194 -0.94967061 -0.36633927 4280081077
2.7763247 -0.93271852 -0.25623786 4280081077
2.9434221 -0.99743867 -0.6041013 4280081077
2.8957732 -0.98241895 -0.48432118 4280081077
2.8326061 -0.96209162 -0.36731425 4280081077
2.7862573 -0.94689167 -0.25745806 4280081077
2.9529228 -1.012163 -0.6067726 4280081077
2.8979321 -0.99444461 -0.48525977 4280081077
2.8404949 -0.97584313 -0.36877668 4280081077
2.7867033 -0.95790708 -0.25780669 4280081077
2.9075062 -1.009088 -0.48744985 4280081077
2.852072 -0.99096459 -0.37072656 4280081077
2.7889884 -0.96959138 -0.25832963 4280081077
2.922605 -1.0257729 -0.49057853 4280081077
2.8504686 -1.0015721 -0.37097031 4280081077
2.8006239 -0.98460728 -0.25972411 4280081077
2.9320378 -1.0405933 -0.49276862 4280081077
2.852567 -1.0135099 -0.37170154 4280081077
2.8215744 -1.0030531 -0.26199016 4280081077
2.7867234 -0.99175954 -0.15501912 4280081077
2.9339657 -1.0528232 -0.49370724 4280081077
2.8714299 -1.0315144 -0.3746264 4280081077
2.8180559 -1.0128961 -0.26199016 4280081077
2.9378862 -1.0652401 -0.4949587 4280081077
2.8791895 -1.0450946 -0.37608883 4280081077
2.8238659 -1.026129 -0.2628617 4280081077
2.7667687 -1.0059278 -0.15428641 4280081077
2.9508424 -1.0816072 -0.49777454 4280081077
2.8904326 -1.0606091 -0.37803873 4280081077
2.8354106 -1.0409811 -0.26425621 4280081077
2.7688646 -1.0176467 -0.15460044 4280081077
2.9527972 -1.0934447 -0.49871314 4280081077
2.8924832 -1.0722582 -0.37876993 4280081077
2.8504386 -1.0578039 -0.26599932 4280081077
2.772964 -1.0296037 -0.15501912 4280081077
2.9689243 -1.1123983 -0.50215465 4280081077
2.9015455 -1.0877303 -0.38047612 4280081077
2.8577347 -1.0724444 -0.2670452 4280081077
2.7839477 -1.0458626 -0.15585649 4280081077
2.9799988 -1.1278312 -0.50465763 4280081077
2.9127741 -1.10297 -0.38242605 4280081077
2.8578885 -1.0833275 -0.2673938 4280081077
2.7972701 -1.061466 -0.15679854 4280081077
2.9743977 -1.1370019 -0.50434476 4280081077
2.9274461 -1.1202253 -0.38486344 4280081077
2.8596711 -1.0954349 -0.26791674 4280081077
2.8086545 -1.0764545 -0.15763591 4280081077
2.979423 -1.1514564 -0.50590914 4280081077
2.9401813 -1.1368804 -0.38705707 4280081077
2.8706946 -1.111164 -0.26931125 4280081077
2.8084149 -1.0881847 -0.15784526 4280081077
2.9956262 -1.1697531 -0.50935066 4280081077
2.9396923 -1.1490945 -0.38754454 4280081077
2.8853536 -1.1284347 -0.27105436 4280081077
2.8138986 -1.1016219 -0.15836863 4280081077
3.0117378 -1.188177 -0.51279223 4280081077
2.9467416 -1.1637238 -0.38900697 4280081077
2.8980744 -1.1450889 -0.27262318 4280081077
2.8323233 -1.1202526 -0.15962468 4280081077
3.020417 -1.2038021 -0.51498228 4280081077
2.9539297 -1.1779009 -0.39046943 4280081077
2.8922088 -1.1544595 -0.27244884 4280081077
2.8395236 -1.1345787 -0.16025271 4280081077
3.0292366 -1.2189738 -0.5171724 4280081077
2.9721048 -1.1965866 -0.39339426 4280081077
2.9123883 -1.1737258 -0.27471489 4280081077
2.8598242 -1.1537025 -0.16161345 4280081077
2.8576295 -1.1644319 -0.16171812 4280081077
