# .PCD v0.7 - Point Cloud Data file format
VERSION 0.7
FIELDS x y z intensity
SIZE 4 4 4 4
TYPE F F F F
COUNT 1 1 1 1
WIDTH 146
HEIGHT 1
VIEWPOINT 0 0 0 1 0 0 0
POINTS 146
DATA ascii
2.5904427 -1.4776055 -0.71913105 100
2.5978024 -1.4739634 -0.71657455 100
2.6051621 -1.4703214 -0.71401811 100
2.6125219 -1.4666795 -0.71146166 100
2.6198816 -1.4630375 -0.70890516 100
2.6272414 -1.4593955 -0.70634872 100
2.6346009 -1.4557536 -0.70379227 100
2.6419606 -1.4521116 -0.70123583 100
2.6493204 -1.4484696 -0.69867933 100
2.6566801 -1.4448277 -0.69612288 100
2.6640399 -1.4411857 -0.69356644 100
2.6713996 -1.4375437 -0.69100994 100
2.6787591 -1.4339018 -0.6884535 100
2.6861188 -1.4302598 -0.68589705 100
2.6934786 -1.4266179 -0.68334061 100
2.7008383 -1.4229759 -0.68078411 100
2.7081981 -1.4193339 -0.67822766 100
2.7155578 -1.415692 -0.67567122 100
2.7229173 -1.41205 -0.67311472 100
2.7302771 -1.4084079 -0.67055827 100
2.7376368 -1.404766 -0.66800183 100
2.7449965 -1.401124 -0.66544533 100
2.7523563 -1.397482 -0.66288888 100
2.759716 -1.3938401 -0.66033244 100
2.7670755 -1.3901981 -0.65777594 100
2.7744353 -1.3865561 -0.6552195 100
2.781795 -1.3829142 -0.65266305 100
2.7891548 -1.3792722 -0.65010661 100
2.7965145 -1.3756303 -0.64755011 100
2.8038743 -1.3719883 -0.64499366 100
2.8112338 -1.3683463 -0.64243722 100
2.8185935 -1.3647044 -0.63988078 100
2.8259532 -1.3610624 -0.63732427 100
2.833313 -1.3574204 -0.63476783 100
2.8406727 -1.3537785 -0.63221139 100
2.8480322 -1.3501365 -0.62965494 100
2.855392 -1.3464946 -0.62709844 100
2.8627517 -1.3428526 -0.624542 100
2.8701115 -1.3392106 -0.62198555 100
2.8774712 -1.3355687 -0.61942911 100
2.8848307 -1.3319267 -0.61687261 100
2.8921905 -1.3282847 -0.61431617 100
2.8995502 -1.3246428 -0.61175972 100
2.9069099 -1.3210008 -0.60920328 100
2.9142694 -1.3173589 -0.60664678 100
2.9216292 -1.3137169 -0.60409033 100
2.9289889 -1.3100749 -0.60153389 100
2.9363487 -1.3064328 -0.59897745 100
2.9437084 -1.3027909 -0.59642094 100
2.9510679 -1.2991489 -0.5938645 100
2.9584277 -1.295507 -0.59130806 100
2.9657874 -1.291865 -0.58875161 100
2.9731472 -1.288223 -0.58619511 100
2.9805069 -1.2845811 -0.58363867 100
2.9878664 -1.2809391 -0.58108222 100
2.9952261 -1.2772971 -0.57852578 100
3.0025859 -1.2736552 -0.57596928 100
3.0099456 -1.2700132 -0.57341284 100
3.0426018 -1.2420838 -0.52684218 100
3.0390608 -1.2409626 -0.51947141 100
3.0355198 -1.2398415 -0.51210064 100
3.0319788 -1.2387203 -0.50472987 100
3.0284376 -1.237599 -0.4973591 100
3.0248966 -1.2364779 -0.48998833 100
3.0213556 -1.2353567 -0.48261756 100
3.0178146 -1.2342354 -0.47524679 100
3.0142736 -1.2331142 -0.46787602 100
3.0107324 -1.2319931 -0.46050525 100
3.0071914 -1.2308719 -0.45313448 100
3.0036504 -1.2297506 -0.44576371 100
3.0001094 -1.2286295 -0.43839294 100
2.9965684 -1.2275083 -0.43102214 100
2.9930274 -1.226387 -0.42365137 100
2.9894862 -1.2252659 -0.4162806 100
2.9859452 -1.2241447 -0.40890983 100
2.9824042 -1.2230235 -0.40153906 100
2.9788632 -1.2219023 -0.39416826 100
2.9753222 -1.2207811 -0.38679749 100
2.971781 -1.2196599 -0.37942672 100
2.96824 -1.2185386 -0.37205595 100
2.964699 -1.2174175 -0.36468515 100
2.961158 -1.2162963 -0.35731438 100
2.957617 -1.2151752 -0.34994361 100
2.9540758 -1.2140539 -0.34257284 100
2.9505348 -1.2129327 -0.33520207 100
2.9469938 -1.2118115 -0.3278313 100
2.9434528 -1.2106904 -0.32046053 100
2.9399118 -1.2095691 -0.31308976 100
2.9363708 -1.2084479 -0.30571899 100
2.9328296 -1.2073268 -0.29834822 100
2.9292886 -1.2062055 -0.29097748 100
2.9257476 -1.2050843 -0.28360671 100
2.9222066 -1.2039632 -0.27623594 100
2.9186656 -1.202842 -0.26886517 100
2.9151247 -1.2017207 -0.2614944 100
2.9115834 -1.2005996 -0.25412363 100
2.9080424 -1.1994784 -0.24675287 100
2.9045014 -1.1983572 -0.2393821 100
2.9009604 -1.1972359 -0.23201133 100
2.8974195 -1.1961148 -0.22464058 100
2.8938785 -1.1949936 -0.21726981 100
2.8903372 -1.1938725 -0.20989904 100
2.8867962 -1.1927512 -0.20252827 100
2.8832552 -1.19163 -0.19515751 100
3.001158 -1.0986587 -0.60535049 100
2.9984298 -1.0914409 -0.60770667 100
2.9957016 -1.0842233 -0.61006284 100
2.9929736 -1.0770055 -0.61241901 100
2.9902453 -1.0697879 -0.61477512 100
2.9875171 -1.0625701 -0.61713129 100
2.9847889 -1.0553524 -0.61948746 100
2.9820609 -1.0481347 -0.62184364 100
2.9793327 -1.0409169 -0.62419981 100
2.9766045 -1.0336993 -0.62655598 100
2.9738765 -1.0264815 -0.62891215 100
2.9711483 -1.0192639 -0.63126832 100
2.96842 -1.0120461 -0.63362443 100
2.965692 -1.0048285 -0.63598061 100
2.9629638 -0.99761069 -0.63833678 100
2.9602356 -0.99039298 -0.64069295 100
2.9575076 -0.98317528 -0.64304912 100
2.9547794 -0.97595751 -0.64540529 100
2.9520512 -0.96873981 -0.64776146 100
2.9493232 -0.9615221 -0.65011764 100
2.946595 -0.9543044 -0.65247381 100
2.9438667 -0.94708669 -0.65482998 100
2.9411387 -0.93986899 -0.65718609 100
2.9384105 -0.93265122 -0.65954226 100
2.9356823 -0.92543352 -0.66189843 100
2.9329543 -0.91821581 -0.66425461 100
2.9302261 -0.91099811 -0.66661078 100
2.9274979 -0.9037804 -0.66896695 100
2.9247699 -0.8965627 -0.67132312 100
2.9220417 -0.88934499 -0.67367929 100
2.9193134 -0.88212729 -0.6760354 100
2.9165854 -0.87490958 -0.67839158 100
2.9138572 -0.86769187 -0.68074775 100
2.911129 -0.86047417 -0.68310392 100
2.908401 -0.85325646 -0.68546009 100
2.9056728 -0.84603876 -0.68781626 100
2.9029446 -0.83882105 -0.69017237 100
2.9002166 -0.83160335 -0.69252855 100
2.8974884 -0.82438564 -0.69488472 100
2.8947601 -0.81716794 -0.69724089 100
2.8920319 -0.80995023 -0.69959706 100
2.8893039 -0.80273253 -0.70195323 100
